#             x             y             z
      -1.47883      -1.11569      -4.20949
     -0.914882     -0.659736       3.98817
    -0.0565883     -0.653406       2.12006
       7.56143      -8.94509       4.77744
      -4.27017       2.30589       -2.9018
      0.796061       4.17715      -3.61197
       2.71844       1.13718      -4.86406
      -6.84243       4.71781      -6.57146
      -2.40392       3.94254      -4.35843
     -0.362287      0.672193      -1.93658
      -2.68223       1.43212       3.07191
       3.01934      -5.26159       5.23872
       0.53682       2.68331       3.20658
       2.22472      -1.18885      -6.07794
      -1.04058      -2.02022        3.2124
     -0.855422     -0.490315      -2.47235
      0.719209       2.58996        3.8381
      0.322676      -5.73758      -9.10776
      -4.07221      -3.60874      -5.18067
     -0.964343     -0.404904      -2.77389
      -10.0712       7.28474      -13.9418
      0.190144      0.457733      -2.81422
       1.40383     -0.754681      -3.65169
      0.569377       1.36573      -3.95052
      0.392577       2.45313       1.94754
      -2.67071       -2.9713       5.98417
       0.40093      -1.03074      -3.88353
      -3.51422       1.16471       2.08003
      -0.66622      -4.05474        1.9844
       1.66068      0.833338       4.81651
      0.301133       3.07361       1.74506
      -1.97025     -0.233928       -1.8663
       1.84442        4.2986      -5.85925
       2.40212       1.42016     -0.821907
     -0.889423      0.275785       6.47672
      -1.33237      0.784304       1.88135
      -1.35084      -2.24496       2.08189
      -2.93776       -3.5627      -6.69191
      0.354348        -4.076       2.52945
      -1.06034    -0.0482077       -5.9991
      0.626834      -1.50462      -1.15012
      -1.90975      0.918232      -4.07031
      -2.58837       2.57013       6.34592
      0.852258       1.69719      -2.72386
      0.857403     -0.919264      -3.77564
        1.7142      -1.15119      -2.41468
      -2.02251      -1.03562       4.62898
      0.658498       2.82125       3.88738
      -1.72478     -0.642127        3.7352
        2.3043       3.49068      -4.79606
      -3.34382    0.00610673      -7.99097
     -0.979379     -0.204954      -4.25411
       2.46322       2.25908       2.80911
      -1.77754     -0.840746       5.48204
       1.59871       1.03418       7.23517
     -0.369973       2.03151      -3.79561
     -0.521628       1.94801      -5.45731
       1.98652      -2.02359      -3.30604
       -1.4038     -0.597973       2.24691
      0.624289      -1.24293       2.37457
      -1.46254       3.18549      -3.74236
      0.644201       1.37511       3.47946
      0.122104       1.51406       1.34619
     -0.404421      0.291236       1.13041
       2.63726     -0.600982      -1.74746
      -2.26095       3.61918       9.75868
       1.48079      0.676168     -0.627856
      0.336462      -0.63159      -4.13899
     -0.719206      -3.40819       3.24234
        2.9442      -4.51578       2.75741
       1.33717     -0.932744      0.775751
      -0.86592       2.02235      -6.64858
      -5.34942      -1.92912      -1.14546
      0.996247     -0.205782       1.99454
      0.742731      0.547629        8.6864
      -2.32704      -2.74266        5.3376
       1.75283      -3.40453       13.6766
      -1.42861      -2.28353      -1.40321
     -0.976235      0.254861      -3.87894
       1.15065      -1.25966       5.75219
      -2.24612      0.333525       -2.6517
     -0.917027      -2.26637       2.37672
       3.61207       1.76546      -2.40928
     -0.645133       1.36586       1.00317
     -0.538648      0.773048      -5.01996
      -4.85874     -0.646398       5.92495
       2.59707      -2.65293       5.77215
      0.745728       4.76283      -6.45537
      -1.33731       1.80358       -4.3559
      -3.27695      -1.16563      -6.55221
     -0.159866      0.249673      -5.39894
      -1.87094       1.04471       9.66791
       1.42717       5.18228      0.615161
      0.600333       1.21516      -2.15543
       4.10885      -4.56873       4.42556
      -1.23847     0.0467889        6.6913
      -1.91307       1.65596       4.68697
      0.359379     0.0683722      -2.71596
       -2.1186      0.671485      -1.10326
     -0.303554      -2.81697      -2.28424
       2.56582      -2.21258       3.72159
       3.04021      -1.83913      -3.29339
      -2.73851       1.54233      -3.39162
      -3.06111      -1.65205       3.50299
     -0.602434      -2.90539       -5.0481
       5.10819       3.20005       8.25321
       3.52394      -1.59278       3.65404
     -0.795038       2.55282       9.23321
      -1.24057      -1.97074        3.3775
      0.449052      -1.19972       3.62617
       7.31121       6.71014       12.6523
       1.98414      0.455071      -4.60291
       -1.2826      -1.02376        4.7525
      -1.99284       2.69228       4.83301
      -3.46024      -4.23827      -5.20462
      -1.64362      -2.71959       1.80878
      0.881382       3.37568       4.26868
      -2.98231     -0.817664       1.98328
       3.51101       3.64151      -7.74067
     -0.732495       2.24885       9.03975
       1.57858      -2.81351       2.99828
       4.52222      -1.88736      -4.51175
        4.2458      0.470409       2.97776
      -2.88762      -4.80718      -5.28217
     -0.767899       4.30279      -2.42692
      -4.99425      -3.29207       3.69041
   -0.00194857       1.01805       2.54575
      -1.41205      -3.62498       1.41264
      -1.24682     -0.196717       2.61739
      0.601077        3.9383      -4.19347
       1.25555    -0.0268365       3.58078
     -0.464386      0.298522      -2.34048
       3.80871       5.97588       6.00956
       0.47345      -4.42028       3.96585
      0.981052      -1.14974      -2.32952
       6.55562       5.57758       4.38414
     -0.410773      -2.37568       5.74535
       3.95819      -6.57663       4.90954
      -2.64659       1.03135      -1.68533
      0.369283      0.156103      -1.27499
      0.667942     -0.723517       3.88319
      -3.74136       4.76051       4.63314
        2.1567       1.15632      -4.68546
       1.16356       4.87796       3.03149
       1.83476      0.319808       1.60306
       1.78363      -1.82378       2.88955
      -1.26997      -2.02562       -6.1755
      -1.17587     -0.452862      -1.30986
       3.71361      0.481149      -4.66292
       1.56425      -1.80192       4.41503
      -5.32497     -0.225082       5.15922
     -0.422019       1.18114       5.44697
      -3.09094       5.35339       3.29184
       1.15219     -0.400762       7.90269
     0.0839449      -2.76299       8.22877
        3.9388     -0.782229      -1.25222
       4.53023       -2.5575        2.9459
       1.62899       1.09807      -4.96207
     -0.442506      -1.89561      -5.41015
     0.0856743     -0.463622      -1.55629
       1.98996       1.62382       2.46775
       3.77064      -3.91908      -2.16302
      -2.75492      -2.40371      -3.94619
      0.505833       2.29957      -2.64578
     -0.718117      -2.09239      -2.13563
       1.85445      -1.34566       6.06073
      -3.92879      -1.14694      -2.90101
       2.82916       -3.0586        3.0008
       1.40948       4.56311      -5.93302
       3.79724     -0.866025       6.55985
       2.81174      -5.02538       6.08973
     -0.554248       1.88801      -1.88142
      -3.23729     -0.259654      -3.44961
      0.842531      -1.53675       1.85988
     -0.251378      0.733989      -1.51021
      -1.99647     0.0708744       3.90284
      -2.97285      -1.71087       3.22531
       3.07725       4.96604       5.56524
      -2.54961      -4.57432       2.05575
      0.503507      -5.70771       10.0943
     -0.599147      -1.25259      -2.02327
      -3.72263       1.04352      -4.07943
      -1.22322     -0.758556      0.713626
      -1.10895     -0.605428        6.0024
     -0.575114      -2.23376       7.52915
     -0.760526      0.247412       3.45588
      -1.25557       2.98539      -1.76944
       -4.6404       2.78592      -3.26583
      -1.05636     -0.906837      -2.21151
      -1.92476       1.70948       4.50434
       -1.5419      0.848983       2.83438
      -0.10932       2.44324       2.07006
      -4.73233       1.66029       5.75575
      -1.15688     -0.667739      -3.73909
       2.41781     -0.648029      -3.47295
      0.626013      -1.27377       2.23027
       5.55798     -0.837197       1.93599
      -1.20902       2.15331        2.5942
        2.3759       3.14586       -2.6589
      -1.07764      0.747205      -4.23137
     -0.892796     -0.480249      -1.08004
     -0.306413     -0.690737     -0.498228
       5.79633      0.550486      -7.04427
     -0.684433       1.51937     -0.951241
      -1.49208       2.43865      -3.35634
      -1.11907      0.409014        4.0014
       3.34918       2.59528      -3.48359
      -1.19935      0.415678       1.72218
      0.461269       2.22672      -3.45303
       2.43956       4.16775        6.9159
       3.78169      0.959692       4.59958
      -2.80378       1.80294        2.7522
     -0.670992     -0.609866       1.25082
       1.90816      0.827798      -7.38901
       2.20903      0.370166       2.70059
       1.48927      -2.15941       -2.4609
       3.39704        1.8721       9.84099
       5.27228      -1.21836       3.33403
       3.90013     0.0194018      -4.05957
       1.38744      -3.93882       3.52999
      -1.02748       2.66052      -3.38304
       2.06759      0.172027      -1.31251
      0.686391       2.00365      -5.54879
      -4.95736      -1.33212      -5.47289
      -5.33259       1.32019      -3.16034
       2.93911      -2.36076       5.15517
      -3.28497       1.62694       2.61817
      -2.80626       1.83862        -2.868
      0.694542       2.75431      -3.42721
      -2.28503      -3.05842       1.84218
      -1.14889      -3.72676       3.36589
      -1.66024      -1.88223         2.511
       2.25236       -3.0138        6.2239
      -5.34039     -0.943851       6.13457
       2.24212     -0.483821       2.16386
      -1.72936      -1.51731       1.23387
      -4.66034        -4.334       4.80766
      -1.61218      -3.14793      -4.94014
      -1.20691       3.48485      -2.59601
      0.598345      0.935579      -1.08295
       2.22268       2.21483       8.70882
      -1.96788      0.222679       5.21868
      0.590682       3.34804      -6.44349
      -1.98382       1.21782       3.54804
       4.69837       -4.0521       4.15808
      -4.04011       1.43734       5.48414
      -2.60983      -2.65058       3.14526
      0.830746       1.39509       1.41346
      -0.34715       1.05628       5.84792
      0.467525        2.7651       3.12425
       1.42304       1.43291       4.70192
       2.90917     0.0854159       2.82382
      -1.72537      0.986978       4.20517
      -2.81365       2.87373      -2.58803
     -0.961959      -1.15076       3.91395
      0.724086      0.915222      -4.25272
      -0.75632      -1.49447       1.75992
     -0.376138       2.88014      -2.47347
      0.133481      -5.16006      -10.8569
      0.123581     -0.481032       2.78284
     -0.576264      -4.01719       1.49632
      -2.19157      -5.33785      -4.39324
       0.98105      0.278575      -2.78076
      -5.17846       4.40659      -3.85917
       1.07396      0.159283      -3.17709
       1.77782       1.20824       11.6579
       1.25197      0.198695        4.1618
       4.53431     -0.882041       6.01243
     -0.495733      -1.21757      -6.36867
        1.4682        3.3258      -3.89499
       2.16589       -1.3246        3.0797
      -1.17405       -3.2352       4.75416
       6.27778      -2.48709       9.99748
   -0.00724769      -1.34163      -0.77091
     -0.776593       -1.3162       3.44606
      -2.16901     -0.157099       4.67821
       2.95102      -3.64478      -4.88497
        2.1275    -0.0996495      -4.91438
      -1.25773      -2.48063        5.4214
       3.81462      -3.61788       6.72306
      0.294966       1.58873       -1.7434
       1.91902     -0.115175      -5.72317
     -0.549264      -1.00935       3.91034
       4.79394     -0.480752      -6.24906
      -1.26295      -2.78571      -2.20946
      0.183778      -5.20601     -0.803074
       3.12064       3.01116      -7.16692
        -2.628      -3.73293      -3.18245
       1.25766      0.357197       2.90372
      -2.21636       3.97666       4.88989
       1.30015       2.09721       5.05578
      -1.09793     -0.856283      -10.1735
       0.81661       2.30962      -1.39217
      -5.65293      0.912364       4.35724
      -1.48808     -0.197978      -4.85472
      0.857231       2.74235       1.51548
      0.376425      -3.75348       7.25885
      0.451744      -4.30484      -1.22695
     0.0454814       2.97406       2.38491
    -0.0650712      0.237274      -1.30769
      -1.76465       1.48154       2.46235
      -4.94186       3.04032       6.26785
      0.573291     0.0478966       1.43711
        2.6938      -1.65295      -3.42465
       3.71127       3.69328      -5.91534
       2.48039      -4.54874      -4.42161
      0.106944      -1.22894      0.784143
      -2.09854      -3.57389      -3.90447
      -2.48076       2.13446       4.56903
       0.69213       1.01015      -1.79643
      -1.81365      0.580867       2.19776
      -0.12908     -0.795003      -2.08449
     -0.528337      0.333705      -1.29703
       1.47974        0.5063       1.10235
      -4.76649     -0.476006       3.14723
      0.752076        2.2136       1.71963
      -1.64815      -2.12044       -5.3838
        -2.872      0.313906       3.95883
       1.45567      -1.65425      -3.60188
      -1.58696     -0.454031      -1.31433
      0.924862     -0.284075      -3.04618
      -1.55739      -2.57923       3.56453
       1.27926     -0.152504       1.41198
     -0.305337       7.66151       5.05044
      -1.13995     0.0180916       1.57564
     -0.734171      -0.71033      -6.09188
      -4.51241       2.04746      -4.03033
      0.539008       1.18404        1.6674
     -0.855725       2.31676      -3.65225
       3.94626       2.14109      -7.29145
       2.48578      0.112477       -4.9888
     -0.314834      -1.71345       -2.3735
       3.02477     -0.839839      -3.64569
      -3.13659      -1.30853      -4.06136
       -4.6119       2.31276      -6.97149
     -0.406986       1.86441      -3.29436
        3.6314       3.47972       3.13194
      -2.30965      0.136168       2.46013
     0.0275897      0.274209      -1.32881
        -2.304     -0.394581      -2.39146
      0.442426      -2.06241       2.27662
       1.91717      -1.49126      -3.27558
       2.80798      0.942362       3.91587
       2.88802        3.2343       5.60851
         3.285       1.44883       5.90611
      0.235045    -0.0495916       1.80082
      -3.43672       3.71001      -4.23194
       7.07473      -4.80226       6.08987
      -2.42021       2.36292         -3.15
      -2.72941       2.56702      -4.90866
     -0.204526     -0.481465      -2.29355
      -6.97823      -7.12953       3.91553
       3.77283       2.75946      -5.12975
      0.595316      -5.72028      -2.57818
       3.19716       1.36267      -1.69857
      -1.10388      0.942871       3.49489
     -0.464238      -1.97165       2.49659
       2.90561       4.70487       6.06706
      0.844843       2.38592       4.01249
      -4.97185      -0.43041      -2.75548
      -1.48475      -3.81522      -2.40645
      -1.87841      -2.39044       1.90527
       5.27555      -2.69885      -5.94108
      0.395868     -0.370367      -3.20218
      -1.40977      -2.55932       3.27342
     -0.292317      -2.11286       1.40608
      -4.82064     -0.197837       2.11375
     -0.453981       5.47201      -1.22691
      -6.15765      -3.51305      -2.54213
      0.675386       2.49621       4.38445
       1.84604       2.45396      -3.74977
     -0.269613     -0.813752       1.45139
       1.44508      -1.53208      -2.28822
       5.67354       1.68979      -8.56421
      -1.73562      -2.77662      -1.11752
      -3.32986      -0.04288      -8.08327
       1.42813      0.280313       6.76105
       3.01665      -4.57676      -3.04283
      -1.34593     -0.186385      -1.42304
       2.08747     -0.425174       -4.0613
      -3.61295      -6.67254      -2.79269
     -0.687179       3.95689      -6.78248
       1.04409       1.01729       1.04772
      -3.64779        2.0736      -1.80218
      -3.08258      0.751397       5.02037
      -1.72376       2.21522       0.82126
       1.17114        2.3329       2.80328
       1.56876      0.355229      -5.46157
      -1.51794      -2.68578      -2.01917
      -1.09329      -1.97404       3.81593
     -0.967753    -0.0876242       3.28149
      -1.21885     -0.703377       2.09287
      -4.59018       0.19318      -5.22864
     -0.592767       1.72193       3.21873
      -1.52189      0.243019       -1.0362
     -0.982862      0.290095      -3.33789
      -2.05535      -2.24124       3.30255
       -3.1924     0.0680098       11.4244
      -1.40351      -1.42161       -4.1837
      -3.19448      0.685112       3.43962
      -1.37458       2.70018       2.85743
      0.448044      -1.27755       1.76672
       1.09624      -1.35283      -2.39585
      0.252012      -2.02108       3.32683
       6.37402      0.751324       2.28201
       -2.7472     -0.482012       1.83088
       2.44594      -3.67565       4.73239
       2.37674     -0.999744       6.34028
       3.63464       5.35068      -5.12138
        2.1556     -0.812057      -3.03966
      0.266059       2.78159       5.64572
     -0.376136       3.72987       3.58336
       2.35974      -8.48701       2.80125
      -1.88273       1.81096       2.48071
      -1.31578       1.76041      -2.97134
      -3.32226       2.26326      -5.20937
        4.4646       5.14957       -4.1435
      -2.92542      -2.63659      -2.99562
      -1.19296      -1.70233      -6.75892
      -2.41154      -1.53013       4.23098
      0.433498      -2.68118       -1.8193
      -2.24057      0.261653      -4.68315
       1.40729      -1.63749       6.50214
      0.484871      0.908513     -0.821892
       0.68906       1.80395      -2.40125
      -1.04433      0.106807      -2.63483
      0.384436      -1.62253      -2.67592
       4.33591      0.319786      -5.00947
      -1.11575      -1.11278       5.11966
       -1.8969      -1.54733      -2.37419
         1.592       4.62971       3.98313
     -0.840124       1.41243       1.83979
      -2.52787     -0.553794      -6.70794
      -5.60453      -1.21831      -3.74538
      -2.89316      -3.66915       5.15515
      -1.88074      -1.19512       2.03592
       2.49244      0.787322      -1.88121
     -0.765388        2.7163       2.70178
       1.51859      0.775154      -3.61514
      -1.79324      -3.48131      -3.16999
    -0.0892881     -0.734841      -2.33775
       2.11299      0.399208      -3.81628
       1.61626      -3.28474      -2.29783
       2.79336      0.187778      -8.46372
      0.254966     -0.142545       1.56429
       1.65844     -0.679502       2.58064
       1.60361      -4.11232      0.497596
      -1.53142      0.540752       4.51954
       1.87573     -0.678874      -2.65163
      -2.50137      -1.76358        1.7024
     -0.919994      -1.37561       6.01813
      -4.72568       -1.0758      -3.91961
       1.22192       3.23737      -7.99852
       3.25747      -1.97016       3.35631
      -4.40493       4.23783       1.93581
      0.107006      -4.71914       3.21018
     -0.800746      -2.99719       3.09345
       5.25194      -2.98203       7.16675
       1.26516      -0.30873      -6.17463
     -0.285855     0.0313973      -4.52071
      -1.34112       1.06431      -3.41853
      -1.43315      0.755686      -4.36042
     -0.590545       4.97035        3.4454
      0.533894      -1.35567      -1.89898
     -0.568654       1.67788      -1.99558
      -1.31182      -1.95748      -1.43983
     -0.116542        1.5848       2.62321
        1.3292      -4.30015     -0.828243
      0.512844      -1.49346      -4.45525
       2.75691       1.70091       3.22405
     -0.477116     -0.947809      -2.01383
      -3.43703     -0.932572      -3.51643
      -1.32512       1.03203        3.6316
     -0.541429       4.81902       5.46124
    -0.0380784       6.85158       -4.3563
       1.93422       -0.1332       3.21044
      -4.52816       2.40474       5.42572
      -1.94998      -6.75336       4.13595
      -1.03432       1.88403       2.30997
       0.26977     -0.472843       3.02941
       1.68972      -3.06818      -1.33554
      -6.25971      -4.42399       4.43558
       1.19221     -0.536032      -3.07655
       0.96895      -1.32846      -1.60201
      -1.16026       1.35125      -5.05056
     -0.292717      -1.63365       2.41284
      -1.52789      -2.82249        5.6211
      -1.10302      -0.99099      -2.01344
      -1.56681      -1.17377       0.93599
       6.28804     -0.263631      -3.98539
     -0.171935       2.62858      -5.66143
       1.10054      -9.28525      -7.60996
      -1.55261      -3.04061       2.93518
       -1.5841      -1.26864       3.46801
       1.03429      -5.00377       6.27966
      -3.70424     -0.272876      0.544937
      -1.32573       2.06788       3.22167
        2.7965      0.168613       8.37704
    -0.0734094     -0.226307      -1.58865
      -2.97913       1.79442       4.76683
       3.90031       3.62445       4.75014
      -2.51076       3.30952       5.08266
      0.851023      -2.07086       2.36158
       3.34563       2.36559      -2.87137
      -1.47852      -4.10601      0.521429
     -0.802905         1.201      -4.09463
       1.17244      -1.09401       1.06294
      0.287319      -6.24852       3.30103
      -2.09105      -4.70534       2.67299
       1.00032      0.439282       2.68135
       7.44817         4.544      -8.67849
      0.249194      0.271166      -1.92265
      -2.72118      0.645902      -4.11674
       3.51502      0.633384       2.23635
      0.638285       3.11665      -2.08384
       4.10232     -0.131997      -5.41652
     -0.716863      -0.56932      -4.79927
       2.34181      -1.87494      -3.18401
       1.18192      0.689688       2.67134
       1.19738       -1.6384      -2.51776
     -0.771152     -0.440146       2.83603
      -1.96871      -1.04669       2.13475
      0.203276       1.50504       4.18059
      -1.23186       1.50817      -1.79018
       4.62979        6.5508      -6.52636
       1.56021       1.47673      -3.26949
      -2.52297      -1.18248      -7.20005
       3.84536     -0.390904      -5.89182
      -1.14255       1.29014       1.49987
      -5.58357      0.661137       2.99928
       3.75742       -2.3114     -0.936018
       1.65259     -0.601062      -3.94387
     -0.274123      -3.64092      -1.99806
      -2.08302       3.66516       2.96061
     -0.640458      -0.66995       4.07625
     -0.484022      -3.32846       1.17769
       4.67748      0.630656       2.57098
      0.591715      -0.70279       2.13011
     -0.806976      -1.48532       3.77362
      -1.67167      0.570836       2.46217
     -0.704551      -1.80859      -2.56402
      -1.43208      0.760838       8.22629
       3.09573       2.66416       1.46664
      -3.38375       1.00238       4.34243
       -4.6299     -0.334031       4.84512
       3.39009      0.126707       4.74478
      -1.65795      -4.11377      -2.32518
      -1.79071       1.11324      -3.54282
       4.87263       3.44837      -6.50256
      -5.78683       4.35675      -5.50917
    -0.0695433      -2.80098       4.49846
       4.27611       0.36532       2.72795
       2.38031     -0.718806       2.31147
     0.0691628     -0.344936       1.44675
       1.41806      -4.71234       3.44571
       0.64695       1.70097      -2.78639
      0.134216        1.7625       3.34553
      -1.10905       2.29865      -4.34781
      -0.84353        2.3108         2.619
      -4.46888       1.69162       3.67152
       2.05431      -3.40447       4.41837
      -3.23031       0.52359       -8.3251
       1.29728       1.62354       1.77654
      -1.17562       2.26068      -4.21381
     0.0681752     -0.333387       1.46318
      -6.43997       3.04929      -4.34553
      -1.15093      -1.76554       4.42263
       3.09771      0.551432        2.7322
       0.27326       0.80307       4.30865
       6.23793      -3.95315       9.45801
      0.410545      -0.37937       5.83507
        1.0555     -0.264023        4.0752
      -1.20819      -1.06653      -1.66652
     -0.491745      -3.56533     -0.679218
     -0.796905      -1.17466      -5.71048
      -2.67436     -0.647881      -4.68491
       3.87948      -4.91334       -5.8847
      0.862862      -5.68422       8.07035
      0.727829       2.36909      -4.60836
      -2.31655       -3.1438        5.6205
     -0.970262     -0.724066      -6.39976
    -0.0816262      -1.34626       5.90179
        1.8943     -0.530318       3.44716
      -1.99778      -3.07597       6.27528
     -0.368859    0.00547714        -1.383
      -4.10576      -8.28986      -8.74992
      0.682097      0.252814      -7.52968
      -1.02703     0.0776307       3.37534
      -2.01785       4.29808       4.46047
      -2.43366      0.723885       2.21841
       2.29676      -1.31756       2.71803
       2.75644       1.27793       2.25755
       2.43745       4.25547      -3.67266
       4.08553      0.979084       3.29884
     -0.526373     -0.104291       5.68399
      0.613726      0.116177      -1.48218
     -0.252671      -1.47516       3.28219
     -0.537204     -0.634067      0.983317
       5.19575     -0.115764      -4.38162
      -1.44469      -3.15923      -1.43146
      -1.04269       0.57669      -2.48264
     -0.731436       1.75871       8.31713
      -5.08896       1.90543      -2.15625
      -2.17496      -1.10285      -2.34495
       1.14218       3.82823       5.09516
       6.63536      0.397676       3.96022
      -1.91146       3.07731       3.90592
       1.28952     -0.367044      -2.93036
       2.40001      -6.86534       2.11878
       1.18322       3.82604      -1.52876
      -1.09034       1.74103       1.44194
      -4.48175       -1.7385       2.62953
     -0.218562      -3.14027      -4.31799
      0.240455      -1.18061       2.14031
     -0.989353      -4.34196       3.79514
       -2.5932     -0.850012      -1.67702
       3.41595     -0.833675       4.09905
      -0.50292      -1.08106       3.78056
       1.54697      -1.78781       9.32569
       4.47194       1.58107      -6.14392
       1.43525       1.09212       4.48194
      -3.38502      -2.40146       2.34912
      -1.26801      -6.61705        2.2117
     -0.542318       2.76407       4.23882
      -1.48334      0.571821      -7.23175
     -0.914755      0.390842       2.82793
        -3.267      -1.42586      -2.63057
      -3.18516       2.61014       2.47941
       1.35747     -0.772611       6.06032
      -4.69828       1.73419       6.19601
     -0.918613       4.40234      -2.67947
       2.02606       4.84192       -4.0439
      0.930816     -0.546294       3.78471
       3.04677      0.488375      -5.83408
       1.01475       4.67296      -2.70334
       1.61733    -0.0147424       6.64561
     -0.911986      -1.56056      -7.57173
     -0.781504      -2.02639       3.64118
     -0.547059       3.91449       6.92061
     -0.106604      0.187545      -1.58445
        1.3814     -0.776575       10.8964
        1.7039      -3.93758      -7.22974
        9.1341      -2.51719      -8.28373
       2.68198       1.16947     -0.764034
      -1.89204       2.57136      -7.03916
     -0.186221      0.111752     -0.733994
      -2.62151      0.363099      -1.77943
       0.31121       4.03816       3.24198
       1.06448       1.05777      -1.74136
       1.23912      -1.67677       3.78382
      0.634216       4.59739      -3.17187
       1.96417      -1.61022      -2.20184
       2.90018       3.00232      -1.38473
       1.78055      -1.21349      -6.65285
      -2.43136       1.30851      -2.28493
      -2.35907       2.86591      -2.76456
      -1.73562      -4.57738      -4.82236
     -0.263066     -0.149353       4.85453
      0.703654      -3.83946      -5.21387
       2.14261       1.71571       3.11014
     -0.487015      -4.58822      -6.76692
      -2.70825      -2.57031      -6.50552
      -1.81689     -0.296769       1.15609
       2.48274     -0.431876       3.42112
    -0.0716441    -0.0563999       2.23719
       2.04155      -1.20448      -5.68115
       1.80898     0.0615364       7.43668
         2.093      -2.02322       5.74068
      -1.93692       0.31708       3.04608
       -4.5279      0.195978       2.62666
      0.472501      -2.74321      -4.43233
     -0.699175        5.4885      -4.68161
      -6.85568      -6.07166      -5.17235
      -1.70276      0.979193       6.34692
      -3.80896       2.51415       8.58271
      0.739334       3.70373       2.90992
       7.21882       5.38968       11.7797
    -0.0885224     -0.836599       2.86324
      -1.89042      -1.25355      -1.79243
     -0.482117      -2.55927       2.89117
       0.18635     -0.939394       2.73006
      -1.42126      -3.08846      -7.70976
       2.95492     -0.034131       2.64731
       2.42298       1.70704       3.43533
      -0.96903       2.03816      -7.92716
      0.810906      0.786487      -4.82705
     -0.734136      0.511308      -3.97934
     -0.606537     -0.280181       4.10217
       -2.1793       1.34701       4.29797
       2.10567      0.142868       -6.1808
      0.986099       -4.7262      -3.12106
    -0.0838859       1.14112       -2.0739
     -0.770836      -1.69161       3.70973
      -2.86895     -0.130576      -5.17156
      0.041906     -0.383487      -2.61953
      0.556013      0.541845      -3.77869
      -1.83764     -0.456142       1.66696
     0.0432637      0.147018      -1.95748
     -0.951707     0.0296974      -1.95406
       1.15912     -0.254879      -4.56139
      -1.16003       3.30974       1.85827
      -2.90214       1.96086        2.2785
       3.59529      -1.02943      -2.97219
      -0.24497      0.191139       -2.5152
      -2.67104      -1.37571       6.18022
      0.939848       1.75032      -2.51845
       1.77776       2.53517       2.20799
     -0.665878       2.16019       3.45653
      -2.88062       3.85108       2.79813
       1.08806      -4.48735       -8.7058
       -1.1687      -2.39755        5.3532
      -5.01274      -5.66022      -4.45617
      0.197174      -2.55799      -2.64458
      -2.70505       1.32435       4.80122
       2.02175      -1.02664       3.46276
       3.25403       1.63024      -5.64757
     -0.950905        1.7452       -5.1096
      -5.20117        -4.466      -8.01605
       1.19095         2.272       3.43691
       1.16019       0.92238      -2.50432
       1.21505      -1.99575      -5.95397
       1.14586       2.56916       1.96134
      -1.72559      -1.22512      -5.14757
       0.25746      0.424278       2.09168
      -1.63111     -0.315875      -4.61117
      -4.83275      -1.85395       9.42811
      0.408597       2.10599        4.3932
      0.574399      -1.88195       -6.1357
      -2.16263       1.56527       1.12181
       3.94344      -1.21768       4.04849
     -0.871388      0.261347       4.42697
     -0.453237       1.40586      -5.63113
     -0.466025      0.722051      -3.64067
       -5.1528     -0.231905      -3.72967
       6.32948      -2.83435      -1.56538
      0.891153      -2.67825       2.61716
      0.430782        -1.524     -0.894144
       -1.2056    0.00832723      -1.77492
       2.02914       1.74412      -2.51032
       -1.6287       2.74327      -15.1098
       3.49451     -0.811397     -0.823069
       1.02491       1.04282       1.82677
       1.54144      0.386577       6.00654
       2.59784      -1.24762      -2.31181
      0.415996      0.788941       2.30665
      0.479081       1.11532       4.72571
       2.57196      -2.88309        -2.185
      0.904799       1.47421      -1.97097
       1.36944      -1.58599       2.25382
      0.287244        6.1598       5.27928
       0.92239        1.4678      -1.44218
     -0.904631       -0.4938      -4.62777
     -0.235546       1.12597       -5.3122
       3.07619      0.701704       2.07551
       3.22122       1.39528       2.38362
       2.00458       4.80858       4.36896
      -6.96699       5.08144       2.82658
       1.00559       -2.1109      -4.68474
      -2.44222       -2.4774      -3.68331
       1.70756    -0.0335858       2.18643
     -0.499376    -0.0254428       8.42403
      0.227385      -1.15747      0.933732
     0.0797193      0.780659       3.02367
      -4.62366     -0.878315       7.04701
      -1.09527      -2.90562      -4.99343
       4.82534       2.42294       7.15253
       1.91873      0.476127        1.2342
       2.25086      -1.09069      -1.58206
       3.61545      -4.52656      -9.89056
      -5.38726       4.63516       4.19714
       2.22768      -2.92972       3.24402
        0.8999       1.01086        2.2507
      -4.58036       1.63184      -1.66879
       1.08634       -1.3562       6.50982
      0.459051      -1.05974       3.17836
     -0.559251     -0.761942      -3.76555
     -0.653127      -1.18453        2.2525
      -2.25207      -1.94097      -1.62463
       1.46105      -1.87938       2.60238
      -0.20355      0.903934      -2.91107
       2.72244       1.30108      -3.21984
        3.3668      -4.73358      -5.27939
       2.72573       1.03831      -3.03291
      -1.80318      -1.78986      -3.35579
       1.48312      -1.08592      -4.83686
      -2.49592       4.55954      -2.50133
       2.82738     -0.178052      -10.8695
     -0.690759      -1.39698       1.63594
       -1.0578       4.30941        1.8094
     0.0122594       1.06567      -4.52146
       4.48216       1.94966      -1.52629
     -0.811139       2.58636       4.30824
       3.58451     0.0247678       5.71229
      -2.62792       -2.2319       2.86881
      -2.23668       1.36107       5.99295
      -4.81092       1.58425       3.94035
       4.99347    -0.0677866       3.28856
     -0.963061      -1.72483        3.1428
      -2.58353      0.336575      -3.08982
      -1.43739       1.49211       7.24074
      0.732859       2.98784      -7.10003
     -0.129289       3.26617       2.84545
     -0.853298       1.68357        5.2636
      -3.77488      -2.22418      0.724901
       2.37616      -3.45664       2.19636
     -0.661699      -3.11116      -6.46871
      -3.46201      -1.83238      -2.87666
       2.98113      -1.45889      -5.24933
      -2.48222       1.75686       6.70608
      -3.97579        4.1643       4.82983
       -2.6493       2.58011       7.12076
       -1.7717       1.96937      -2.14847
     -0.700518      -2.10196      -4.95902
      -1.94145       -2.6922      -2.47551
     -0.807728       2.26466       4.20046
       1.30113     -0.222625      -2.19949
      -3.63101       3.14271      -2.31382
      -5.07834       -3.2429      -5.21635
      -1.73944       1.78205       4.03734
    -0.0402081       1.98027      -6.20417
       1.25129      -5.35522       4.85422
     -0.330422  -0.000612431      -2.44673
      0.836187       0.84436      -3.91497
      -3.52379       -3.8332      -6.54756
      -1.09286       0.77034       1.26603
       1.13699     -0.687183      -1.21457
       4.95802        0.4885        1.0226
      -1.04189      0.264997       1.15787
       2.61283      -4.94705        5.5053
      -2.34026       -3.6927       6.79088
      0.100833       1.61323       2.75574
      0.649199      -1.60099       4.15616
       2.49171     -0.832676       6.30662
      0.628847     -0.319832       4.33245
     -0.117113      0.859819       2.24182
      0.705926     -0.946354       1.72464
      -2.98227      -0.89022       -6.5521
     -0.608021      0.325332      -1.66133
      -0.67675       -2.1021       1.72884
       2.86831      -1.89242        1.3381
        3.9825       5.22087       5.35452
       6.18045      -1.61469      -4.14167
       1.92643      -3.78937      -3.63931
      -1.50019      -2.04593       7.35822
      0.605036      0.954881       1.43316
      0.694343       0.29005        6.4505
       -1.1539     -0.561692       1.02225
      0.279109      0.812029      -1.52664
     -0.174755     -0.895608      -3.06021
     -0.365509       1.14868       1.41083
       1.59324       6.17214      -5.60096
      -1.90705       1.65405       4.93691
     -0.754303     -0.956051        3.2534
      0.178669      0.891922     -0.883451
       2.79395      0.984706       2.76332
       3.69847       1.40862      -3.43705
       3.14915       2.20217       3.25063
      0.921913      0.900142      -5.20784
       1.31312      -1.98351       2.56541
     -0.522325       1.29451       3.74594
      -3.53382     -0.517871       2.81562
      0.978966      -1.01396      -1.30296
        1.2325      0.997763      -1.72172
      -2.73571       3.52217       5.47563
     -0.764258      -0.87629      -0.61323
      -1.03829      -3.11454      -5.68011
      -1.40656      0.743617       2.82731
      -5.69259       2.00565       3.73658
      -5.13592      -0.57449         3.173
      -0.89636      -3.72055       8.71006
     -0.964028     -0.237682       3.96248
       2.24997      -1.09831       5.36168
      0.928331      -4.17327        2.3153
    -0.0356855     -0.304275     -0.752337
      -2.25217      -1.91778        2.4486
      0.395154       1.09562       2.20235
      -2.70963       6.58302      -13.0368
      0.690776      0.296076      -4.61466
      -0.83468      0.538265      -2.39878
       1.64942     -0.931891       4.12838
      0.947896     0.0486356        2.8091
     -0.810812       2.72746      -4.76347
      -2.79925      0.144827      -2.18305
       1.22564      -3.52187       2.36101
     -0.158649       0.82997       2.77889
      -1.64532      0.711442       4.90194
       2.22256     -0.384574      -2.13004
      -2.63305      -1.41641      -3.02306
      -1.68552        4.7402      -6.81498
      -1.45463       2.56175       2.29199
      -4.52644      -1.26466       -5.3999
      0.276807     -0.156586      -0.59053
      -1.63968      0.865563      -2.32208
       1.68614      -0.21821       2.57223
      -2.02597      -1.74925       3.75892
       2.32825      -3.09939     -0.639695
       2.37774      -2.39399      -4.57679
      -1.45397      0.230839      -3.62839
      -1.69329      -4.23585        -5.043
      0.562547     -0.198395       3.13357
      -1.64556        0.6998      -8.23889
     -0.171137      -4.03474      -4.43193
     -0.357221      -2.68165      -1.47164
       1.88686      -2.73447      -4.06139
       2.19779      -2.72571       3.59776
      -4.18201      -2.94783       6.20857
     0.0631601       2.03453      -4.14468
      0.959467     -0.376445      -2.11885
       1.84265      -2.60937       3.72954
       2.99299     -0.477353       1.53082
       0.30762      -1.72003      -1.96512
     -0.273841     -0.465832      -4.05831
     -0.156067     -0.928932       2.93429
       1.35789      -2.96655      -2.56436
     -0.813131      0.531409       3.99831
         0.754       3.72549       5.08392
          3.23       2.22264      -8.11742
     -0.941092    -0.0927465      -1.08503
       1.91528       2.45896      0.584803
     -0.707989       1.92057      -7.75746
       -1.8046      0.927818      -7.36639
       1.12898       2.44377       -1.3961
     -0.497772      -3.32317      -3.88963
      0.229225       1.47911       4.14161
       1.35461      0.548763      -2.36808
      -2.62974     -0.577789       1.62322
      0.850779      -5.46462      -2.78936
      -1.37125       -1.4327       2.02748
      0.399853      -4.55402      -2.67262
      -1.87734       1.94636      -4.71387
      -2.61811      -1.78851       1.77742
       1.40406       2.37662       3.93234
      -1.79664      -7.86266      -2.47739
      -2.25346     -0.343733      0.263916
       4.35577      -2.10588       1.60893
     -0.189973      0.854816      -1.15056
     0.0289124      -1.09084      -5.87051
        5.0978        1.6791       4.73415
       -3.1145       6.31301      -1.99233
       1.94849      -2.37614      -1.50589
      -5.00209       1.64898      -4.17941
      -1.29163       2.57379      -2.47996
       1.43901     -0.958587      -5.12454
      -1.48186      -2.77587      -3.49873
     0.0343003    -0.0626052       3.28414
       1.57538      0.314761      -3.03245
       3.57557       1.08268      -5.57307
       2.05161      -1.13456      0.663622
       1.70876      0.294545       1.32336
       4.17434      0.809308       6.86533
       5.57066       1.10317       3.47072
       7.56358      -2.88502       3.11912
      -1.78902      -2.84244      -1.15211
       5.23103      0.789085       4.60995
       3.29651      -1.71211      -6.30288
        3.2781     0.0241096      -8.35745
     -0.381787     -0.783202      -1.80389
       3.79378      -1.50166         7.049
      -1.51321      0.899322       4.81647
     -0.733033      0.769445       2.16379
       1.96389       4.60968       5.41771
       5.33305       1.22771      -3.13738
       6.17123       4.64098      -6.97552
     -0.360167     -0.497177      -8.29032
      -1.87191     -0.978824       2.68768
     -0.387311      -1.30543      0.963847
      -1.07462       2.67532       1.16251
      -2.23069       1.39541       9.99746
      -4.24919       3.40273       5.68687
      -1.50676      -2.92968       2.27412
      -1.65337      -1.56234      -4.58892
      -2.22638       1.04448       2.92103
      -1.44225      -1.14253       3.92243
     -0.923475       1.34418       2.97775
      -1.74316       4.52232      -2.02343
       2.20868       1.82707      -2.59105
      -0.88698       1.15667       2.68851
     -0.548669       0.16411      -4.45186
      0.625896       2.71036       3.19381
      -2.70461       1.89221      -2.97878
      -0.26414      -2.67703       2.69319
      -1.26792       2.73037       1.98431
      -3.75401      0.237455      -3.82228
        -0.683     -0.520019       1.21294
      -1.28969      -3.04923      -4.86932
       -1.5087     -0.474323      -3.20068
      0.885544      -1.41757      -1.58027
     -0.333722      -2.15935      -4.17202
       2.06442       1.86777       6.10266
      -1.64981      0.121939      -5.55908
     -0.245085      -3.49611       3.74714
      -1.06213    0.00428211      -1.77565
       7.48904       2.71611      -6.94958
        2.7733      -1.36814       3.29719
      0.154028       1.59347       2.86054
       -6.9862       1.59467      -5.19905
       0.32598       1.35156       3.25202
        1.6011     -0.219321       2.49039
      0.835056       1.36733       5.49119
     -0.141596       3.77129       3.04133
       1.70633       3.63507       10.2446
       -1.4712      -4.18551       2.01945
       -1.1299      -1.69623       1.67779
       1.00819       1.78313       1.35089
     -0.810094     -0.608927       1.89024
      -2.79414     -0.677944       6.44122
      -2.43236     -0.588374      -4.56684
      0.239998       5.23488       5.62749
      -1.14507     0.0762834       1.69472
      0.934922        2.8914       3.85594
      -4.75676      -1.14254       3.33303
     -0.635004       2.15583      -9.03326
       3.07023       1.39783       5.58145
       1.55489      -3.50276      -4.05099
      -1.47453     0.0881916       3.55047
       2.11892      -3.10513       7.27576
     -0.148947       1.51223      -2.22646
     -0.699757       4.84916      -3.20176
      0.564052      -1.84939       -4.1988
      0.142821     -0.608869       3.16643
       2.45005      -4.72379      -2.82352
      -2.97721       2.79958       3.75774
     -0.901033       2.00384      -3.55835
        -3.517     -0.429578       3.31267
      -2.41603       4.20261       4.34076
     0.0415008       1.89508      -2.08299
      0.613059       1.64071      -6.15474
      -1.80511      0.468268      -2.97978
      -1.44093      -1.09688      -3.93246
       0.86504       -2.0792      -3.17464
      0.356901        0.4397      -1.33515
      -3.81032     -0.400291       4.82816
       3.38841       1.09397       -2.6998
      -1.56644      0.168562       6.06932
       1.02458         2.029       3.63435
      -1.69783      0.834691       7.46693
      -3.20692       1.82634       3.73545
      -2.03023      -2.00041       3.01621
       3.64099      -1.38709       -2.8452
      -1.39699        1.8493      -4.60164
       3.57604     0.0116411       -2.2155
       2.69547     0.0831307      -2.08967
     -0.588921      -2.43304        1.5241
      0.319282       2.78152       3.07617
      0.754956      -3.18132      -5.35603
     -0.543985      -2.99379       1.74587
      0.262965     -0.466192      -2.65265
       3.78263      0.615435      -3.46341
      0.126054     -0.689128      -1.04143
      -6.08661       1.54838       5.35482
       4.62637      -2.78981      -4.73801
      -5.62666      -2.37589      -4.02684
        2.0768     -0.599918       3.59404
       -3.0934      -1.23074      -2.60055
       1.06976      -1.12031       5.44566
      -1.00785    -0.0352556      -3.35052
      0.414332       3.81569      -6.08042
      -2.28922      0.991723      -2.88895
      -1.91219       1.89549      -4.11152
       3.34592       1.76871       2.77151
      0.604131     -0.473834      0.736973
       1.39753       2.03525       -1.9712
       8.52056       2.11432     -0.834316
       2.65684      0.604277      -2.83638
       2.43057     -0.525015      -1.84887
       1.84411      -1.25912      -5.74543
      0.621152       1.58207        -3.221
       1.98465       2.62222      -3.42942
      0.382731      0.303741      -2.77287
     -0.781476      -7.66604      -3.70547
      0.102037       2.00782       2.29677
      -1.33546      -1.68998      -4.13924
      -2.59008      -1.93111       5.81825
       1.39869     -0.496837       3.26639
      0.218319      -4.22283       1.93563
       1.54185     -0.457838       2.29673
       1.62212       1.25006       5.90324
       1.81879     -0.648385        -4.053
     -0.377225       1.02589      -2.49723
       -3.3811     0.0127011      -3.75057
      0.497294       1.59496       5.47665
       2.35709       2.04261       7.93026
      -2.78393      0.121037       1.97267
      -1.22715        2.3787       2.55674
      -1.31813       1.37855      -2.80275
     -0.517135     -0.294557       -7.8261
     -0.740104     -0.770315       3.61398
      -2.33172       1.92884       2.54633
     -0.163054       1.27518       4.19982
      -1.76662      0.541524      -2.73912
      0.321455     -0.975161      -2.84976
     0.0846337      -3.01302       2.36857
      -6.38773      -2.80632       2.68286
      -1.80603      -3.45961      -4.18541
       3.73092      -3.03682      0.877177
    -0.0353184     -0.704498       3.01566
      0.986156      -1.42871       4.03096
       4.40681       0.83785      -3.32211
        1.1757       1.20213       -6.9394
        -1.069      0.152209       1.33579
      -3.73335      -0.42405       5.60702
       2.41476      0.178363      -4.42931
     -0.593888     -0.781025       1.93027
     -0.205603      0.309879       2.08241
     -0.460395        5.9503      -3.35754
     0.0725924       1.78578      -2.51909
      0.726687      0.624191       4.42667
     -0.307418      -1.49707       1.42527
       6.76601      -1.11195       11.3692
      -4.27439       1.28082       8.45988
       2.17633       2.27963       2.72744
     -0.932574     -0.217669       1.53625
      -1.91582   -0.00781111      -3.00726
       1.06809      0.324012     -0.289725
     -0.677136      0.644756      -5.57183
