#             x             y             z
     0.0788559     -0.214785     -0.103792
     -0.437838     0.0628651      0.658382
       1.26559      0.976135     -0.573901
     -0.968844     -0.360379    -0.0253103
       0.88293      0.648806       -1.0072
       1.63874       1.09361      0.145725
      -1.09324      0.626229      0.222716
     0.0613435     -0.450354      0.146862
     -0.804092     -0.268899     -0.019388
     -0.577406     0.0426054      -1.00888
      0.156809     -0.147568       1.26842
      0.968585      -1.00339    -0.0650688
     -0.100277       1.41893     -0.419406
     -0.510603      0.300934      0.766841
     -0.885034      0.385023     -0.334411
      0.148176       1.52258      -1.41514
      0.201563      0.549805      0.474668
      0.399506     -0.249535      -2.17415
      0.406655     -0.404161      0.713467
     0.0276464     -0.156721      0.954881
      -1.39304     -0.598335     -0.107738
      0.485982     0.0603405      0.905153
     -0.683284     -0.129089      0.634736
      -2.29722      0.435175       -2.3279
     0.0679098       1.59281     -0.439131
     -0.855177     -0.670519      0.168036
   -0.00241545      0.818328      0.484073
     -0.809522      -1.04376      -1.39949
     -0.145482       0.15481      0.266855
       1.51196      0.939898      0.738994
      0.604925      0.320806     -0.347316
       0.28928     -0.076178     -0.517832
       1.68639       2.21339     -0.553208
       -1.3678     -0.434977     -0.204084
      0.726848     -0.211507     -0.265223
    0.00390154     -0.232239      0.233578
     0.0406625    -0.0282774      0.356108
     0.0789547      0.274709      -0.68758
      0.250729      0.551596     0.0182647
     -0.282902       0.82442      -1.57876
      0.606384     -0.586192     -0.472465
    -0.0695153     -0.406929      0.440717
      -2.75013     -0.796291      -2.47636
     -0.698033       0.77366       -1.2096
      -1.78132       1.07346     -0.304929
       2.27803       1.31692     -0.414474
    -0.0806082     0.0207419     -0.790357
      0.553396      0.489451     -0.946136
      0.148934       1.03328    -0.0653555
      0.420751     -0.211206     -0.146053
      0.803193     -0.698956      0.738481
      0.862846     -0.731493     0.0115212
     -0.485589     -0.581602     -0.225544
       1.49801        1.3642        1.7629
     -0.685991     -0.787824       1.31733
    -0.0830861      0.619947      0.522759
      0.792012      0.290507     -0.199867
      0.401879      0.487787       0.88933
      -1.28651       1.31462      -1.49983
      -0.90814      0.246012      0.971703
     -0.760828      0.215218      0.246345
     -0.310209     -0.204069     -0.843295
      0.341093     -0.325461     -0.329603
     -0.290845      0.711836      0.212607
      0.517305     -0.971641      0.462866
       1.76446      0.252021      0.425012
      -1.44518      0.891555      0.390613
      -1.13926      0.769601     0.0803677
      0.366497     -0.600907       1.32857
     -0.661689       -1.4223      0.830456
     -0.960424      0.973078       1.44831
      0.183889      0.195102     -0.213163
      -3.01517      -1.67186      -1.63526
     0.0687009       1.31662     -0.903839
     -0.483036       1.02318      -1.46966
     -0.724735      0.179479       1.22475
      0.867325      0.442095     -0.593173
       1.53853     -0.701496      -0.29032
      -1.38849       1.41677      0.155445
      0.629465       1.54434     0.0158387
     -0.631534     -0.192223     -0.100193
     -0.320254      0.972976      0.450396
      0.234044     -0.418987      0.469115
     -0.462949     -0.191318      -1.72265
      0.819477     -0.384725       1.61977
    -0.0174438     -0.256994      0.404261
      -0.53065     -0.366152      0.491916
      -1.05917       1.41064       1.52882
     -0.525074       0.27585      0.064849
     -0.135641     0.0044608      -1.08559
      0.038038      0.229865     0.0345713
       -0.6641      0.335179     -0.472061
       1.29564       1.53975      -0.78231
     -0.330594      -0.61767      0.205798
      -1.15977      0.180646      -1.05286
       1.18416      -1.93104      0.437494
       1.97313    -0.0213488      0.230738
       1.20917      -1.41462      -4.32444
     -0.270933     -0.298611   -0.00754358
     -0.744317      -2.45786       2.56359
      0.827357     -0.336507       -1.0644
      -0.84494     -0.082133     -0.119943
      0.641778      -1.19851      0.455834
       1.14493      -2.10498      0.416145
     -0.993729      0.872792       1.05477
     -0.743152       1.54188     -0.681621
      0.206999       1.79428       1.02706
     -0.911708       2.16827      -1.53034
       0.67025       0.26397      -1.19504
      0.835975      0.806955     -0.210362
    -0.0244658     -0.345947      0.461342
     -0.178548     -0.200301      -2.18432
     -0.496106      -2.02937       1.74991
     -0.265991    -0.0181076      -1.11459
       1.14961      0.399603       1.09371
     -0.403202    -0.0836729      0.872072
    0.00830778      0.868266     -0.283784
      0.172873        2.1398       1.14581
      0.399833     -0.962289      -1.15249
      -1.06284      0.217631     -0.177647
      0.583177      -1.46769      0.254565
     -0.763127     -0.323251       1.21553
     -0.272016       0.35834      0.472217
       1.32841     0.0763092      0.112061
     -0.854471    -0.0791685     -0.385786
     -0.701841     -0.347932       1.29991
     -0.715896     -0.304705     -0.416798
       1.27269     -0.259017      -2.46419
        -1.246     -0.666753       1.92418
      -1.21294     -0.760963     -0.697696
     -0.055433        1.0963      0.491072
    -0.0204632      0.704595      0.543432
     0.0294771      0.328179       1.05923
     -0.621652     -0.547585     -0.986822
     -0.100223     0.0682743     -0.470507
     -0.355317       1.33241     0.0669539
      -1.61485    -0.0665097      -1.03999
      0.582223    -0.0457382     -0.589525
     -0.260727     -0.276547       1.30944
     -0.314558     -0.190593      -0.67731
      0.895137     -0.532933      0.782441
     -0.295076       1.21005     -0.182621
      0.528189      0.363116      0.707336
      0.855311      0.311824    0.00857422
      0.847389     -0.663914     -0.814082
      0.129891     -0.735274     -0.138447
       0.35143     -0.926547     -0.642806
      -1.16346      -2.21086       1.36031
      0.267416       1.01386     -0.228535
     0.0750684       1.08421    -0.0558057
      -0.43502     -0.528726       1.11767
      0.996043     -0.828133       2.54269
     -0.341081      -0.57768      0.811478
      -1.81534        1.1197      -3.04172
      0.156833    -0.0466422     -0.364937
       1.39006       2.10672       2.94999
      -1.07434      0.145178    -0.0223042
     -0.280222      0.201301       1.23966
     -0.591208      -1.48272      -1.50234
      0.459754     -0.120547     -0.206303
      0.531691       -1.1019     -0.814398
   -0.00924526      0.694205      -0.98888
       0.64957      0.716354       2.05655
     -0.339256     -0.502632      0.736277
     -0.469666     -0.172651       1.82045
     -0.170074       1.32276     -0.222637
     -0.259593       1.30855     -0.336535
      -2.43668      -1.16237        1.1771
      0.714146      -1.19403      0.409856
      0.622043      0.157538     -0.652686
      -1.36948     -0.636359     -0.707858
     -0.580004      -1.11508      -1.43474
      -0.15781      0.191029       1.91694
     -0.290709     -0.791394       1.39215
       1.62037      0.960037     -0.307424
       1.05249     0.0362291      0.515878
    -0.0295416      0.382648     -0.438382
      -1.07251      -1.96012      0.540845
      0.159048      -0.75583       1.72567
     0.0562248     -0.822674      -0.25059
     -0.365514      0.287926       -0.3927
       2.13378      0.236034      0.143879
     -0.706819      0.339213      -1.49846
      -1.32299       1.06889     -0.335596
       0.13315      -1.11825     -0.144287
      0.251921      0.288084    -0.0458851
      -1.17611     -0.231226      0.708799
     -0.630355      -0.71459     -0.889929
      0.294955     -0.520103      0.494327
        1.3545     -0.616445       1.09025
     -0.266468     -0.081178     -0.371022
      -0.71563     -0.593488     -0.324661
      -0.19392      0.128758       0.99109
     -0.715728      -3.21842       0.13251
    -0.0819219       1.31536      0.283954
      -1.57664      -1.53064        -1.236
     -0.364369      -1.00495      0.274119
      0.354485       1.33196     -0.392088
     -0.936741      0.586712       0.77915
      0.284505      0.353701      0.177692
       2.92628       0.78077       3.24954
       0.71521      0.101666      -1.17534
       1.07135      0.140891    0.00448705
       1.02166     -0.889078     -0.765249
      0.209558      0.103932     -0.650657
       -1.4621     0.0563897     -0.721851
      -0.40252     0.0621803      -0.56786
      0.758458     -0.544125       2.33115
       1.15212    -0.0469925    -0.0209626
     0.0506202     -0.557904     -0.134515
       1.14676      -0.26981     -0.939483
      0.128772      0.186303      -1.28968
       1.38582       0.84706      -1.08387
      0.567896      0.081129      0.767539
       1.12657      0.412271     -0.230859
       1.22267     -0.100051   -0.00315426
      -1.31275      -1.01889      -1.41652
     -0.569318       2.10355       1.37895
      -1.07823     -0.187805    -0.0988805
     -0.204962       1.00958       1.06009
       1.87032        1.3203     -0.513138
     -0.712294     -0.345715     -0.785943
       2.00718     -0.926336      0.480081
      0.779334     0.0612473      0.840226
     -0.567359      0.719048     -0.643269
      -2.39718     -0.069998       0.62069
      0.550978       1.17187      -1.05168
      0.347451      0.793577      -1.36933
       1.99732     -0.312546      -1.01006
      0.412728      0.589258      0.253715
      0.473808      0.626981      0.419531
     -0.016588      0.742773     -0.189266
     -0.528837     -0.129108      -0.35534
      0.991475     -0.262584     -0.482393
       1.18001     -0.460853      0.334157
       1.84644       1.42924      -1.97212
     -0.551816       0.46201      0.757564
     -0.760139      0.639629     -0.209262
        2.7553      -1.47366      0.794637
     -0.763044      0.634581     -0.483054
      -1.29523      0.162392     -0.053748
       0.79489      0.165659     -0.614239
         1.536      0.971016      0.936356
     -0.183406     -0.300658      0.483929
     -0.588932      0.820026     -0.283768
      0.108525      0.895639      0.396939
      0.984983      0.681768      0.930085
      -1.00347     -0.713527       1.08509
      0.701727     -0.851673     -0.286482
        -0.703     -0.629505       1.58982
      0.708259       1.00459      0.620161
     -0.760072     -0.736497     -0.236221
      0.594859     -0.868068    -0.0842838
      0.279122        1.1865     -0.598563
      0.439191      -0.92541     -0.351215
      -1.76658      0.169224       1.80613
     -0.308133      -1.20041      0.516198
       1.20607     -0.135489      -1.14508
       1.24112      0.896207      0.313382
      0.397292       1.51572      0.675508
     -0.204069      -1.57638       1.09601
     0.0229909     0.0577181     0.0383971
      0.306419     -0.660021       2.09844
      0.474902     -0.393709     0.0606569
      0.212239    -0.0210783     -0.784987
       1.45741      0.359399      0.720538
       1.00693      0.109776       -2.7272
    -0.0951509      -1.53154       1.84666
      -1.92369       -2.9036      0.235579
      0.888952     -0.113707      -0.80168
     0.0957122        -1.044     -0.443277
      0.146513      -0.04477      0.715997
      -1.89258       1.53503       1.87669
     -0.387178     -0.191685      -1.21927
      0.401264     -0.961641    -0.0883936
        2.0762     0.0187586       2.52554
      -3.23866      0.214776      -1.44818
     -0.149934      -1.65624     -0.861367
       1.16748     -0.763668       -2.2025
     -0.437772       1.34698      0.585192
     -0.917842       1.18703      -1.99511
        2.5191     -0.456625      0.222003
     -0.024501      0.406066      0.561762
     0.0896187      -1.28899      0.583147
     -0.106885     -0.262145      0.236928
      0.150752      -1.29365      -2.02601
      -2.24552     -0.505358      -2.38414
     -0.290243     -0.721617      0.644025
   -0.00936865     -0.994164      0.164458
       0.22146     -0.596573     -0.392126
       1.28615      0.185675     -0.091328
     -0.805182      0.139432    -0.0134361
     -0.190005    -0.0537943     -0.439795
      0.577894      -1.25433     -0.347297
     -0.404574     -0.989248     -0.618671
       1.83465      0.356475       2.54721
      0.232368       1.02868      -0.93927
      -1.05615      0.182989      0.913586
      0.136476      0.241113      0.315585
      -1.07638     -0.271648       0.10379
      0.218272      0.288621      -0.44893
      0.239319         0.731      -1.83197
       1.58926      -1.15738     -0.262162
     0.0549106      0.300892       0.59972
     -0.503343      0.021329      0.429053
       1.20642      0.491098     -0.207446
      0.685922       1.04905       1.65142
     -0.457672       0.86512      0.220943
      0.789686       -2.2022       2.79417
      0.582995        0.2458      0.191143
      0.735254      0.397699    -0.0797294
       1.69425     -0.512736       1.44281
       1.59471     -0.531615      0.337745
       1.06402       0.39617       2.05993
      -1.52448       1.00264     -0.325304
     -0.405383      0.503057       1.32769
       1.10997     -0.900188      -2.33577
     -0.983886     -0.448379      -2.14565
      0.210014     -0.699518       1.68137
      0.387799     -0.435265     -0.494077
       1.21743      0.512128     -0.982645
      -1.25593       2.08775      0.645933
      0.476057      -1.19286     -0.253803
     0.0982987     0.0653479      0.426751
     -0.614571     -0.459748      0.865136
     -0.309108      0.787841       1.04338
      0.854951      0.555633      -1.10747
     -0.693931      0.576708       1.00059
      -0.76916    -0.0249595      0.230481
      0.790112     -0.725153     -0.176974
      0.340895     -0.363817     -0.371538
       -1.0286      0.561268     -0.166362
       1.17381      0.158731      0.131976
       0.54876     -0.301556       -0.9121
     0.0959555      -1.59485      0.652051
      0.215881      -1.12269      0.412548
       0.27952      0.572006     -0.322673
     0.0344494       1.03079        2.0613
     0.0966014      0.812021     -0.428167
      0.688265      0.424917     -0.170443
      -1.67797     -0.539641       1.50961
     -0.606357     -0.535617       0.48108
     -0.246388       -0.2406      -1.16741
     -0.985287     -0.683314      0.467513
      0.549669       1.08915      0.814406
     -0.126948     -0.117725     -0.800529
      0.329902     -0.532194     -0.778811
       1.30548     -0.298674      0.625625
      0.347282     0.0535055     -0.274892
    -0.0142996     -0.627412        1.0903
     -0.130985   -0.00804787      0.471459
     -0.903653      0.760018      -2.17028
     -0.808066    -0.0807784    -0.0825774
     -0.997163       1.37427      0.324955
      0.672819     -0.299825    -0.0378883
      0.872109     -0.901305     -0.347882
     -0.705113     -0.423541    -0.0542582
       1.13316      0.242835      0.641596
         1.486     -0.022871      0.295294
     -0.928292     -0.828205     -0.982881
     -0.664894      0.680821         -0.74
       1.25817    -0.0319061      -0.91131
       1.04969      0.202481     -0.699044
      0.976579      0.539722     -0.945456
      -1.30286      0.888363       1.07554
     -0.226049        1.7963      -0.10115
     0.0580258      0.640212      0.198033
    -0.0746432       1.96569       2.79593
       1.52472     -0.513786       1.61798
     -0.538893      0.421962       1.34344
      0.465438      0.583981     -0.896524
      -1.65623       1.88509       1.39773
      -1.89785      0.453071      -1.18275
     -0.110069     -0.268435     -0.241885
       1.26581      -1.01533    -0.0563858
      0.607949     0.0621812      0.105679
       1.41468      0.894363      -1.00947
     0.0242173     -0.291582     -0.304336
      -1.05555      0.795957     -0.232549
    -0.0665369     -0.889544     -0.385049
        1.1821      0.595509      0.222946
       1.90664      -3.58862       1.31617
       1.14161       -0.9553      0.514005
      0.694786    0.00982094     -0.753438
     0.0883671       1.86375    -0.0122456
      -1.29529       1.78505       -1.4362
      0.585463     -0.591662      0.906578
      0.116074      -1.68242     -0.282388
      -2.49462      -2.00395     0.0607708
       -1.5933       1.38662     -0.846815
     -0.499441       0.17229     -0.150532
     -0.386197      -1.01999       1.63346
        -0.542       1.24881       1.10505
      0.382215     -0.577686      0.619594
      -0.55092     -0.880467     0.0377558
      0.422222     0.0782961    -0.0467171
     -0.434503     -0.176281     -0.273344
     -0.301026      0.171699     -0.117446
       1.64281     -0.228371     -0.562394
      0.828037     -0.442853     -0.144334
       1.17596      -1.03879      0.453129
      0.652149      0.660358     -0.795768
      0.279749    -0.0344055     -0.719285
      -3.64841       1.23455       1.82208
     0.0737243      -0.65778       1.12004
     -0.321773     -0.401546    -0.0175515
      0.505328     -0.955751     -0.818558
      0.788563        1.1251     -0.437844
      0.106538      0.149262     -0.909215
       0.92651     -0.442786      0.187298
        0.5514     -0.880597       0.28321
       0.34992     -0.410926     -0.146608
     -0.442651      -0.28771     0.0868428
       0.68271      0.341165       1.05123
       -1.1215     -0.946407      -0.13152
     0.0634334      0.338669      0.426419
       1.37462       1.18056     -0.074439
     -0.473573      0.169266        2.0118
     -0.662493     0.0394318    -0.0284784
     -0.263217       0.23874    -0.0627201
       0.98957     -0.710573     -0.292285
     -0.974364     -0.967767      0.537569
     -0.215557      -0.66482      0.366914
       4.14103        2.8868       2.23643
      0.142663      0.375596     -0.115767
      0.564314      0.118761     -0.108311
       1.25936     -0.073588      0.518722
    -0.0983802     0.0848398       2.11407
       1.23292     -0.413353    -0.0502701
       1.44462       -1.3619       1.73674
      0.346315       1.08037      0.868016
      -1.67723       1.20461      0.301183
      0.300576     0.0487211      0.276105
      0.832537     -0.153027    -0.0116693
      0.348166       1.06063       1.53219
      0.356667    -0.0310726      -1.51197
     0.0638588     -0.267884      0.572717
       2.33665        2.2226      0.702917
      0.433137      -1.16873      0.161201
      0.075409       1.23191    -0.0285708
     -0.751376      -1.82124      -1.18051
     -0.526547      -1.50229     -0.644101
      0.796468     0.0704207      -1.08141
      0.224583     0.0917323     -0.701797
      0.283021       0.27006      0.165627
      0.222534     -0.889019    -0.0334703
     -0.431806      -1.90079       1.45994
      0.244436       0.10837      0.385048
      0.952256       1.59941       3.23173
      -1.64768     -0.391924       1.62531
       1.24047       0.94503       1.57416
      0.577802      0.102223      0.418695
      0.114071      0.165645        1.1578
     -0.553744      -0.42752     -0.582721
     0.0131932     -0.440122     0.0278442
     -0.999159      -0.77733      0.464115
      -1.24423       1.17587     -0.205497
      0.402591      0.729151      0.330338
       -1.0716     -0.392347     0.0320311
      0.300365     -0.416239      0.433757
      0.439055       1.09133     -0.250267
     -0.173792      0.801728     -0.534506
      0.184517      -2.24302    -0.0253425
       1.02299     0.0956382     -0.340581
     -0.686943      0.353422      0.306451
      0.269652     -0.568927       -1.1327
     -0.441282       0.26994      0.931917
       1.30661    -0.0844144      0.529908
      -1.25752      0.751176      0.665135
      -1.26467     -0.293832      0.482799
       0.19805      0.848965      0.170138
      0.591587     -0.632201     -0.415003
     0.0200877      -1.07251     -0.128379
      0.216265    -0.0941284      0.398284
      0.764601      0.488233     0.0696975
      0.243006      0.245156     -0.121507
     -0.793585      0.309094      0.721964
     -0.147876      0.320328      0.341755
      -1.01966     0.0177288       1.04743
      0.284433      0.221317      0.314476
     -0.395846      -2.78683      -2.26568
      0.732621      0.750874      -1.50378
     -0.746469      0.144011   -0.00774106
      -2.35612      -1.15703      -1.11511
    -0.0618209      -1.17454     -0.104843
      0.695731    -0.0236614      0.636348
     -0.780789       1.76418      -2.77099
     -0.019601      0.226659     -0.308409
     -0.216899     -0.496796      0.683695
      0.580733     -0.425261     -0.158905
     -0.856588     0.0833531     -0.389418
      0.956789      0.962427     -0.795705
       0.27313       0.90682     -0.817263
     -0.109719     -0.134216      0.406603
     -0.321216  -0.000568664     -0.982902
     -0.666914     -0.769696     -0.250718
      -1.09459      0.738202       1.07042
      0.943932       1.27377      0.625176
      0.413327      -1.73948   -0.00420957
     0.0531039     -0.306997     -0.457787
     -0.859891      0.131846      0.378346
       1.07207      0.617369       -1.3165
     -0.816383     0.0787189     -0.149324
     -0.137573       1.89703      0.387253
       2.90138      0.483265     -0.743916
     -0.217833     -0.222267      0.709129
     -0.591215    -0.0010161     -0.197505
      0.780243       1.23212      0.441426
     -0.165785      0.834029      0.873385
     -0.456726      -0.44862     -0.390011
     -0.374108      0.410992      -1.40487
      0.919018      -1.60263      0.384944
       4.05814      -1.68061      -1.61184
      -0.32458      -1.07538      0.394352
       0.16378     0.0399935      -2.77805
      0.462838     -0.727837      -2.50171
     -0.975545      -1.01841     -0.669171
     -0.242964     -0.202144     0.0204683
    -0.0974233      -1.11044     -0.845257
      0.188621     -0.260582       2.17223
      0.395612     -0.182571     -0.392386
     0.0678407       -1.6325     -0.122325
     -0.221858     -0.196818      0.635365
     0.0431868      0.745238      0.273412
     -0.248219     -0.166879     -0.087013
      0.688006      -1.19501    -0.0546999
       1.10529      0.325551     -0.353684
     -0.383997      0.073775      -1.17977
       1.77759    0.00642444      0.268167
      0.175684      0.404913      0.047482
      -1.35112      -3.42893      -0.35224
     -0.160277     -0.211622      0.535442
     -0.147496     -0.145477      0.383129
     -0.362138      0.908447       1.70823
      0.154062     -0.101623     -0.300234
       1.21703       0.18554      -1.37117
     -0.345272     -0.206762      -1.19325
       1.08782      -0.85302      0.121522
    -0.0948377     -0.322025       -1.5333
      0.722926     -0.830782       2.18648
       0.27128     0.0942889      -1.38863
      0.526894      0.107759    -0.0465162
     -0.611462       1.13788    -0.0162606
    -0.0462907     -0.154563     -0.540684
      -1.31827     -0.771917     -0.903714
      0.181114      0.167489     -0.762933
       1.27065     -0.660322     -0.580251
     -0.315486      -1.45265      0.671608
      0.867932      0.991092       1.09826
      0.589557       1.99144       1.67249
      -1.28562     -0.261604      -1.63354
      0.711519      -0.68713    -0.0606965
     -0.180801      0.063935      0.260219
       0.81659    -0.0585563     0.0672244
       1.55645       1.52477      -2.55639
      -1.01561      0.500903     -0.246817
     -0.228861      -1.24327      -3.04581
       1.21116     0.0626035       1.03417
        0.8363     -0.314617     -0.282929
      -1.40764       1.11025      0.191676
       -2.4872      -1.74602     -0.445282
     -0.776089      -1.21372      -1.06926
     -0.615076    -0.0809815      0.108142
      0.428007       1.54517     -0.256339
     -0.967577      -2.14883      0.963632
       -1.5215      -0.44527        1.3359
      0.749259      0.160333      0.308624
        1.0175     -0.793609       0.20181
     -0.301384      -2.82256      0.597427
    -0.0510247       3.29839      0.953243
    -0.0963885     -0.638045     -0.878482
      0.290501       1.16091      0.177981
      -0.30075      -1.08672      0.191362
       1.00772      0.216646     -0.697689
      -1.97956       1.36719      -1.90864
      0.884924      0.380169     -0.712498
      0.102958      0.698832     -0.116523
     0.0689989      0.515901     -0.818726
    -0.0522289     -0.893777     -0.991964
   -0.00735821      -1.03462      0.238279
     -0.534227     -0.971319      0.169571
      0.579418       0.24996      0.245114
      0.378811    -0.0640438      0.202897
     -0.395734       1.32043      0.266324
      0.602858      -0.50261     -0.244455
      0.803793      0.267536      0.603936
      0.321161      -0.17788     -0.305702
     -0.763392     -0.407315     -0.924883
      0.361304     -0.430359      0.288735
      -0.90391      0.481217     0.0369922
       1.60024       -1.8434       -1.1614
       0.36437      -2.03692      -0.94649
   -0.00608708      -1.34392      0.728317
       0.09188     -0.555234     -0.367036
     -0.942574     -0.280306       1.11699
      -1.55438       1.06035      0.664867
      -1.89438      -1.26528    -0.0412311
       2.48951       0.27242      -1.37312
     -0.554944      0.137422       1.59715
      -1.25668      -1.16785       2.09989
       1.04444     -0.328741      -1.22099
        1.4635      -0.71574       1.81888
       1.52214      0.321036     -0.346781
       1.08523      0.139063       -1.0801
       1.75027     0.0851212       -2.0445
      0.302388       1.50113      0.362798
       1.56867      -1.11084       1.26142
       1.13841      -2.11754       2.61712
      -1.88477     -0.407664      -1.41407
     -0.308428     -0.222078     -0.201419
      -1.13843      0.135184     -0.849669
       2.35079       1.18921    -0.0262139
      0.678905         0.447      0.438799
      0.296601     -0.579931       1.02169
      -0.67067     -0.139666    -0.0583438
     -0.006208      0.633462      -1.58746
      -2.81992   -0.00721369      -1.62147
       1.18511      0.160652      -1.40788
      -0.46027     -0.963309      0.741297
       0.11099      -1.99856       1.20981
      0.143188       2.61061      -2.38869
      0.729268     -0.480511     -0.717592
       1.42159      -1.77635     -0.733077
     0.0121662       1.58354       1.63453
     -0.937074      0.468639      0.084171
     -0.703696     -0.256844      0.786399
       2.98715      0.080488      0.571421
      -1.17742      0.400057     0.0709583
     -0.286942        1.0284      0.030934
      0.568985    -0.0549581     -0.604106
      0.717916     -0.446617       3.18181
     -0.125819     -0.335227       1.78244
     -0.852525      -0.37999      0.579341
     -0.255949      -1.68756     -0.649252
       1.23686       2.22242      0.541401
       0.27059       1.19849     -0.499246
    -0.0682721      0.277532    -0.0592709
      0.203732    -0.0366252      0.140678
      0.526089     -0.156248     -0.282799
     -0.705988       0.90013     -0.265454
     -0.850242      0.448585      0.350202
      0.895555      -3.44678       -1.3211
    -0.0477516      0.186333      0.281546
       1.82912      0.555325      0.786348
      -0.11435      0.399658      0.528308
     -0.402502     -0.654089     -0.772642
     -0.880745      -2.08189      0.187968
      0.132373     -0.850776      0.940566
      0.474316     -0.911015      0.697937
      0.127136     -0.426132        2.5287
        1.1729      -1.61508       1.00377
      0.673173      0.574625      -1.18595
     -0.696079        2.0404     -0.158635
       0.28415      -0.14862       1.03419
     -0.278856    -0.0784191  -0.000664645
     -0.406386     -0.708865      0.974395
     -0.047872      0.491145      0.314296
      -0.10897      0.827152      -1.17387
     -0.957723     -0.187143      0.102871
     -0.741661     -0.127037      -0.92001
      0.155388     -0.240297     -0.508651
      0.997901      0.497691      0.388904
      -1.46686       1.11999     -0.899815
      -1.69278      0.754527     -0.103487
     -0.944634       -1.4025      0.203946
       1.38773      0.231004     -0.437321
      -1.02385      0.209991      -1.09621
     -0.803525      0.613545      0.369129
       1.33968     0.0619838      0.475862
      0.311449     -0.396114     -0.204125
      0.212615     -0.477094      0.205749
      0.604689    -0.0613316      0.498265
      -1.04486     -0.341631      -1.93731
      0.866647     -0.647242      0.118991
      0.498427     -0.577059      0.931874
     -0.437303     -0.527432      0.161384
      0.534215     -0.841329      -1.56261
     -0.278765    -0.0106546       1.60233
      -1.61709        0.7646       0.14845
     -0.473144     0.0360029       1.01006
     -0.350895      0.438468     -0.461149
        -1.573      -1.50985       0.98855
     -0.609673      0.261098      0.342753
    -0.0511168     -0.460622      0.588391
     -0.251641      -1.52669     0.0887633
      0.424348  -0.000864635      0.372549
        2.7152       1.17882       2.08874
      0.233073      0.580285      -1.48526
     -0.753702      -1.29604       1.63578
      -1.29851       1.48719     -0.338193
      0.670329     0.0848259      -1.17374
     0.0665293     0.0889319      0.309743
      0.393454      0.735002      -0.16791
      -1.43048     -0.759482       1.23257
      0.139133     -0.886592     -0.644129
     -0.600064    -0.0393049      0.984919
     -0.275288     -0.988041     -0.962034
      0.591549     -0.987461      -0.54227
      0.131846      -1.68837      -1.31154
      -1.97413       1.67394      0.220872
       1.29982     -0.936926   0.000645854
      -1.05344      -1.35832     -0.509274
      0.221514     -0.120467      0.246117
       1.29854     -0.382357      -1.74362
     -0.372565     -0.120842     0.0163013
      -1.66575      -1.51385     -0.867726
      0.838882     -0.934671       1.50127
      0.016908     0.0749593     0.0867353
     -0.413924      -0.99637      -1.82684
      0.355687     -0.741417      -1.00384
     -0.886231      0.695441      0.225892
      -1.56808      -0.36507     -0.162857
      0.279247     -0.031541     -0.148433
      -1.08053     -0.160763       2.07055
    -0.0185032       0.25352      -1.01751
     0.0876919      0.644446      0.266566
     -0.582097      -2.60078      -1.40709
      0.302194     -0.908866      0.940009
        1.7289      0.553312       -1.6333
     -0.103001     -0.412265     -0.963648
     0.0174377       -1.1852      0.699627
      0.287515     -0.875301       0.33054
      0.956957      0.268287       2.56162
     -0.425341    -0.0319968      -1.26676
      -0.25106    -0.0413626     -0.964304
       2.75236      0.203372     -0.907934
     -0.498538      0.714003     -0.734951
      0.107882     -0.134266      0.270259
      -2.70712      -1.16688       1.98112
        1.0657       1.39118       1.84869
     -0.107353      0.186411       1.39463
      0.100524       1.50323      -2.66307
      0.279116      0.586664     -0.291461
      0.214119     -0.264317     -0.610256
    -0.0664491      0.127071     -0.456097
     -0.318243      0.189017      0.293191
     -0.120322      -1.67126      0.988789
      0.226297      0.316971      -2.84311
      -1.31073        1.1731      0.487898
       2.16949      0.358374     -0.473317
      0.172235      0.945835      0.563538
      -1.87756    -0.0196092       -1.3192
      0.745964     -0.521486     -0.913124
      0.523732     0.0170045      0.431464
      -0.53844      0.193635      0.429334
     -0.203133       1.71676       2.27217
       1.62573      -0.46516       0.84564
      0.189436      -0.61619     -0.825835
     -0.375767      0.721973     0.0544204
      0.390197     -0.515699     -0.177364
     -0.116239      0.385937      -1.84853
      0.400308     -0.391964     -0.144021
    -0.0533816     -0.145631       1.56903
      -0.32147     -0.612238        2.6426
       1.17907      -1.79896       2.98224
     -0.771309     -0.611685      0.604582
      0.149742    -0.0733009      0.837973
       -0.4306      -0.48224      0.272224
     -0.342895      0.297456    -0.0602935
      0.219071       0.30384      0.716293
    -0.0296599      0.257534      0.342489
      0.302449      0.659106     -0.217514
      0.242029       1.62108      -2.04121
     -0.988067      0.389658       -1.2272
      0.658708     0.0887945     -0.283204
     -0.213922     0.0289783     -0.718221
      0.843764     -0.941372      -0.78934
    -0.0614448     -0.571199      0.130361
      -2.39364      0.965324      -2.08588
     -0.877431      0.308448     0.0818117
      -0.10025     -0.524025      0.738876
      -1.73688      0.929332      -2.02842
       1.10813     -0.306718    -0.0033708
      -0.74716     -0.122384     0.0450757
    -0.0783141      0.195485      0.321527
       2.04403    -0.0852361   -0.00331289
     -0.660302     -0.301876       1.32186
      -0.31514     -0.284853      0.505702
     -0.322631       0.36013      0.351598
     0.0748922     -0.482201     -0.649587
     -0.540498      0.202357      0.981382
      0.959601     -0.077893     -0.328114
      0.251876     -0.502227       1.28248
      -1.04748      0.659984     -0.471658
     -0.453508       1.35027     0.0612683
     -0.937265      0.116768      0.752395
      0.933695       1.14692       1.31407
     -0.464581      -0.53397       1.01517
      0.804125     -0.302074     -0.040131
      -1.19409     -0.397417      -1.33195
      0.482216      -1.62161     -0.094955
      0.482748       2.69643     -0.897931
       -1.3668     -0.144947      0.376749
     -0.556674       -1.2795     -0.240146
      -0.12238      0.678273     -0.839586
     -0.843577         2.573     -0.598225
      -1.77739       1.46225      -2.15359
      0.390534     -0.709982      0.872225
     -0.267885     0.0916763       2.49593
      0.290227      0.043457    -0.0749472
      0.208401     -0.741342      0.617655
     -0.451372      0.423365       1.86387
      -2.07005      0.283591      -1.61743
      0.196102     -0.886108     -0.136142
      0.464649     -0.129979      0.796146
       2.03189      -0.84343       0.64082
      -1.84748      0.014078       1.48682
      0.526273      0.939053       1.15415
     -0.087593     -0.347551     -0.622508
     -0.441874      0.453234     -0.916831
       1.31643      0.597692      0.329118
     -0.265748      -1.29909     -0.727176
      -1.99056       1.08658      -1.19888
      -0.19715      0.204321       1.41377
      0.404653     -0.082938     0.0217869
     0.0942718     -0.535531     -0.279268
      0.288694    -0.0105051     -0.195226
      -0.21832     -0.193624       1.15434
      -1.56463      0.638941      0.199704
     -0.520354      0.670789     -0.192158
      0.488625    -0.0486199      -2.42247
      0.021327      0.336413     0.0315372
     -0.963193      -1.25865       1.14671
        1.1566       1.23976     -0.199889
     -0.055054       1.29673       1.00324
     -0.228096      -1.46955        1.7632
      0.374566     -0.146151     -0.793424
      0.669863      0.712812     -0.652684
      0.813409     -0.369221       -1.3176
      0.081959     -0.745325       0.11724
     -0.144526     -0.295535       1.48081
      0.294921     -0.329618     -0.516666
       1.82801     0.0736845      0.403232
      -1.79482     -0.845379      0.275701
     -0.338418      0.134649     -0.555305
     -0.605419    -0.0758687      0.504901
      0.399261       1.30622     -0.859237
      0.686633      0.144887     -0.351804
      -1.09277     -0.387364      0.146392
     -0.420966      -1.04831      -1.12162
    -0.0209002      -0.35581      0.632206
     -0.162707     -0.924933     -0.588412
      0.937134      0.729779     -0.545679
      0.304906      0.251005       -1.0218
      0.146071     -0.246398      -0.22982
     -0.369577      0.565887     -0.474225
      0.332706      -1.06315     0.0241216
     -0.428088      0.696592      0.401272
      0.034446      -1.80992      0.737199
      0.600893      0.165641      -1.28504
      -0.27362     -0.587185     -0.349024
      0.303021      0.161715      0.305664
       1.03176      0.916041     -0.281304
        2.0261      -0.35881      0.577595
        1.6829     0.0339235  -0.000316301
      0.178996      0.126259       1.13631
     -0.852694       -0.3427     0.0820921
      0.644215     -0.111585      -0.13145
      0.431702     -0.756359      0.410329
      0.460284      0.486152     -0.868718
     -0.418979    -0.0249752      0.242491
       1.05513     -0.681231      0.995994
      0.925953       1.57496     -0.998188
      -1.44719       1.81202       2.56044
      0.502411      -1.38317      0.604157
      0.731597     -0.945563     -0.141817
     -0.131922     -0.625962     -0.976736
      0.470273     -0.641009     -0.707809
     -0.709509      -0.17394      0.405836
       1.68799     -0.902298      -2.70735
      0.121371       0.22816     0.0564888
       -1.0475      0.236359     -0.113757
     -0.264069     0.0891009     -0.820051
     -0.651057      0.386728     -0.130864
     -0.777409      -1.01774      -1.31718
     -0.198599       0.70167     -0.674957
    -0.0700887      0.125583       2.52502
     -0.123851     0.0579461     0.0779866
       1.25698        1.2771      0.468296
      0.728052      0.721971     -0.951969
       0.72872     -0.751377     -0.734227
      0.309152      -1.26122     -0.367162
   -0.00888929     -0.168384      -0.19584
      0.343099     -0.577824     -0.588805
      0.271602    -0.0508773     -0.136619
     -0.556528       1.06838     0.0527222
      0.621248      -0.90576     -0.879519
     -0.751914      0.716255      0.946132
       1.11946       1.08672     -0.774053
       2.03759      -2.13934      -1.15936
       0.91155      -1.13268     -0.134611
    -0.0129974      0.128074       0.61052
      -0.30427     -0.246655      0.737031
     -0.551285      0.183646     -0.066568
     0.0531366     -0.664883       -0.2126
      -1.62431      -1.08287      -1.52169
     -0.231926     -0.136622        1.6633
     -0.767252     -0.223347     -0.275027
      0.709645     -0.255762     -0.555709
       1.24225    -0.0918742       1.44145
      0.151373     -0.192096      0.642326
       0.24547      0.201291     -0.421344
      0.140428     0.0433435      0.314903
    -0.0182245     -0.452422    -0.0723771
      0.813393        0.7787     -0.309816
      0.029682      0.336353      -0.26087
       1.29963      -2.39371     -0.900938
    -0.0708088       0.38317       3.08413
      -1.39164      0.181497      0.321987
     -0.244902      0.420997    0.00617934
      0.373765      0.561327      0.218681
      -1.44929     -0.845806       -0.5937
      0.435045       1.82553      -0.62621
      0.583446     -0.609436       1.30198
      0.949308      0.989432      0.781806
      0.935021      0.340023       0.26068
       1.10552       1.05374     -0.481873
      0.594999      0.475292      0.601907
     0.0547125     0.0773233     -0.602282
      0.109839     -0.745417      0.152604
       2.12416       1.68986      0.833791
    -0.0123578     -0.107143     0.0776261
     -0.491901      0.794164     -0.598381
      0.529495       1.48837     0.0164347
      -1.09361       0.12355        1.1303
    -0.0393004     -0.434484     -0.650867
     -0.178235      0.684172     -0.478601
     -0.109186      -1.00897      0.191994
     -0.694655      -1.49687    -0.0686316
      0.373953     -0.348286       3.57756
     -0.573193     -0.116419      0.935967
     -0.156904     0.0949509      -1.46907
      0.508507     0.0388206      0.479194
    -0.0171168    -0.0429773     -0.341847
      0.730131      0.763634      0.933581
     -0.895103      0.331869      -1.21115
      0.113188       1.67421      0.340141
      -0.12867       2.01584     -0.259071
      -1.22939      0.584013      0.770053
      0.501672        3.4181       1.01796
       2.46798      0.518021      -0.22871
     -0.660786      -1.36387      0.700804
       -1.1216     -0.753978       1.04904
      -1.03249     -0.302659      0.871866
     -0.859102      0.950774      0.480509
    -0.0102683     -0.182348      0.245938
      0.248701     -0.376372     0.0194957
      -1.49636        2.2327      0.182888
      0.800922       1.57602       1.09166
       1.86917     -0.578669     -0.383053
       0.18166      0.413595       1.30618
      -1.31223      0.891536     -0.434017
     -0.698816     -0.554153     -0.540331
     -0.297111      0.161487      0.638325
     -0.435914      0.350689      -0.11056
      0.503596     -0.546728      0.515561
      0.792205      -0.46409      -0.21171
      0.804571     -0.587001      -1.51036
      -1.98229        1.8755      -2.14102
      -0.17463     0.0249162      0.239985
       0.26868      0.494744      0.360976
      0.468444     -0.451578     -0.438569
      0.916504     -0.568615      -1.02562
      0.125693     -0.468936      0.187601
     -0.545531     -0.475644      0.172245
      -1.14044      -1.06109      -1.97705
      0.638464      0.156523      0.924892
      0.379741     -0.411276      -0.17276
       1.39797       1.19468        1.0423
      -1.18117     -0.126347      0.786181
      0.435154     -0.614791      -1.82923
     -0.557159       2.13917       1.02128
       2.38616      0.441684     -0.583912
     -0.954941     -0.363915      0.188811
        1.3373      0.563989      0.283664
     -0.654662      -1.79275       -1.0234
     -0.510132      0.385292     -0.754023
     -0.883853       -0.4138     -0.196554
      0.573327      0.542958     -0.765191
      -1.40008      -2.57724       1.42338
      0.672315     -0.545473     -0.310715
      0.863857      -1.25662      -1.52364
     -0.402857       2.65263      -1.07871
     -0.428093       1.44564     -0.308129
     -0.134428      0.281292      0.624905
     0.0233541      0.204284       1.01327
      -1.66441      -1.21982      0.376688
      0.823752      0.387478     -0.442294
      0.624571     -0.506998      0.552177
     -0.250603      0.586593      0.223096
      0.223074      0.459791      0.190659
      0.156024     -0.415721     0.0281267
     -0.791459      0.903097     0.0919809
     -0.552301     -0.678213     -0.887629
    -0.0015401      0.712836       0.51087
     0.0935607      0.466902      0.133549
       1.29961      0.347454      0.114591
   -0.00431646     -0.352798     -0.812584
      0.995214     -0.638703       1.05461
      -2.55664      -1.93772       1.38212
      0.380885       0.30341     -0.382842
       1.43107      0.749444     -0.513766
     -0.279584      -1.34794    -0.0308754
      -1.16928       -1.3312     -0.336274
      0.716048    -0.0582657     -0.423604
     -0.882191       3.42258     -0.721085
      0.284412     -0.782235     0.0649406
     -0.302583       1.19284     -0.441889
   -0.00627293     -0.801825       1.84256
      0.411107      0.267465      0.201754
     -0.217396      -2.34888       4.06892
     -0.117328      -2.69098     -0.974884
     -0.685535       1.04287     -0.489762
     -0.919572     -0.408132     -0.683462
      0.967192       -1.4145       3.16647
     -0.377312      0.591358       1.71277
     -0.855942     -0.216666      0.803976
     -0.840254       1.58093      -1.41959
       1.41241      -1.22436      0.739208
      0.316416     -0.533305     0.0354036
      0.030223     -0.145699     -0.127007
     -0.116498      0.318975       1.50943
       1.09382       2.03747       2.46196
    -0.0901164    -0.0286945      0.474933
      -1.37738      -1.91008      0.279083
        -0.616      0.922568        1.7815
      -1.20356        1.2846      -2.13157
       2.24471      0.664751      -0.88165
      0.936246      0.445946      -0.55308
        1.3947       0.13484     -0.682487
       1.18092      0.815821       1.11003
      0.218785     -0.753464       1.03825
        1.0813    0.00405559     -0.184491
     -0.954611      0.197912     -0.368266
       0.33243     -0.746482    -0.0531272
       1.52824     -0.787623     -0.103767
      0.595842      -1.50737      0.108834
      0.849157      0.063866        1.4832
    -0.0340496      0.175776       0.63061
      -1.78249      0.661677     0.0985245
      0.775715      0.116809      -2.42423
      -1.71562     -0.511116      -0.05901
      -1.94873     -0.896683     0.0943286
        1.0657       1.72576     -0.225045
    0.00776452        0.4232      -0.48267
      0.466089      0.804793     -0.710362
      0.390586     0.0635343       1.48648
       0.56949     -0.316664     -0.161398
     -0.880865       1.23177     -0.572104
      0.355568     0.0624368      0.148015
     -0.493076     0.0338955    -0.0130529
     -0.236735     0.0681906      0.357446
      -1.20854     -0.590078     -0.966229
      0.553169      0.316455     -0.830787
      0.673201     -0.126182      -1.89707
     -0.931295     -0.649908     -0.422161
       1.55453      -1.01565       2.39543
     -0.201114      0.500832     -0.409357
      0.590245   -0.00451531       0.23649
     -0.343859     -0.584523      0.269981
     -0.315556      0.446015     0.0912647
      0.689525      -0.18964      0.116238
      0.796564     -0.581241      0.305788
     -0.203925      -0.33904     -0.783275
      -1.24025     -0.104711     0.0959188
     -0.122275     -0.962652     0.0671593
    -0.0351799      -0.59812     -0.208326
     -0.463126       -1.5036       1.10715
     -0.675942      -1.59239    -0.0774736
      0.758765     -0.692789      -2.04001
      -1.03071      0.593094      0.939179
      -0.60722      0.197659     -0.215652
     -0.546996      -1.56733     -0.127655
      0.161538     -0.206684    -0.0223689
       0.51402      0.567513      0.254588
       1.84372     -0.469329      -1.67323
     -0.841164      0.530658      0.389569
      0.639855     -0.606426       1.91778
       -2.8104      0.378492      -1.52535
        1.4236      -0.40347     -0.160846
      0.314231      0.719825     -0.661243
     -0.290998    -0.0881099     -0.730677
      0.164031      0.407131    -0.0196895
      0.228025     0.0445195      0.598505
      -1.07938     -0.477904      0.186526
       -1.5468      -1.07695     -0.687578
       1.50232     -0.252059     -0.590038
     -0.228624     0.0083697      0.734622
     -0.904843      0.752646      0.172882
      0.666844     -0.312148     0.0530597
       2.10561     -0.465085       1.11719
       0.76755      0.070375      0.797322
        1.5425    -0.0994599     -0.393921
      0.845572      0.367878      0.206947
      0.452957      0.483271      -1.10755
    -0.0383533     -0.563495      0.538767
      0.163615      -1.17403      0.466978
     -0.993919     -0.621228     -0.232383
      0.246297     -0.232176     -0.294466
      0.513163       1.20278       2.99416
     0.0405803     0.0140812     0.0512217
       1.53419      0.244659     -0.620689
      -1.43127       1.56181     -0.438637
      -1.14737      -0.86333      -0.14383
       1.05428     -0.847897      0.926217
       1.45324      0.292983       1.06468
      0.833643     -0.110016      0.532703
     -0.496981    -0.0436884      0.389445
       0.15851    -0.0861925     0.0223479
     -0.338823       1.47447      0.273686
     0.0568005   -0.00237669      0.236708
     -0.588193     0.0997938    -0.0112078
        1.7515       0.40281      0.173552
      0.984406      0.363275     -0.138998
    -0.0486731      0.581499      -1.94361
