#             x             y             z
       4.55467    -0.0726295      -4.42999
     -0.106383      0.749136      -5.28251
     -0.633875      -4.01988      -1.37764
      0.567658     -0.971367       3.45795
       1.69055      -4.01104       3.15375
     -0.018512      -1.62506       -3.6574
      -0.92352     -0.412412       -3.1404
      -1.59409      -2.75589      -5.85487
       3.15442       3.28259      -2.46045
       1.63444      -2.59325      -1.43462
        1.5826      0.709937       2.21194
      -2.40788    -0.0662466      -6.97594
     -0.731189       2.25635       1.81392
      -2.08402       3.35073       9.17666
      -4.88078      0.387656      -3.81269
      -1.89618     0.0236929      -6.74191
      -2.78342      0.241672       1.67525
       1.12575        1.2383       2.09077
       7.80773      -1.95857       7.91796
     -0.839345      0.928091      -4.71472
     -0.361598     -0.887791      -5.60237
       1.46078      -1.12418      -4.20102
      0.887344       1.99775      -2.27866
     -0.475124      0.624473      0.938601
       -1.6392      -2.52875      -6.97811
       4.84434     -0.499425       3.33478
      0.571824       1.21895       4.45177
     -0.456531      -3.13506       2.73942
      0.448811      -3.98711      -5.59971
       2.08699       2.95473      -5.04755
     -0.914374    -0.0122417      -2.72649
       2.60364      0.490598      -2.20798
     -0.874734       3.42515      -3.36332
      -3.07657       -1.8787       4.92741
      -0.14154      -1.66409      -3.69829
       1.98981        2.6324       5.13471
     -0.892866      -0.33704      -1.25167
       2.13311      -1.17258      -3.32258
       1.05658      -2.40084       2.90756
     -0.771942      0.582959       2.58097
     -0.690749      0.449556      -3.72444
       1.84487      0.594381       2.45065
      0.440116       1.31116      -6.18495
       1.56029    -0.0814139      -6.57274
      -3.67165        2.1286      -2.72577
        3.1042      -3.33986       -2.6339
       1.44646        1.2852      -2.82913
     -0.473701       3.11036       4.35835
      -1.33756     -0.253692      -4.15892
       2.41313       1.49484      -1.06329
       5.22703      -2.23233      -7.03802
      -1.79796      0.102514      -2.35995
       11.1846       1.27542      -3.42964
      0.101228       -3.1542      -5.40552
      0.691719      0.411074        3.5955
        2.4676        1.9958       -3.0809
       3.68476       1.45735       5.71709
       2.87809      0.841801       2.07948
    -0.0874646       5.59303       7.04173
     -0.121798    -0.0284071      -2.41904
     -0.405964       -2.4045       4.03548
     -0.268324       1.72361       3.79042
       1.04959       -5.5995       7.62655
       2.68964       -5.2466       2.31644
      0.389964      -2.05276        2.2023
      -3.59667       1.56393       2.47641
      -1.40494      -1.83952      -2.01095
      -1.37157       1.63219      -4.53309
     -0.755758     -0.182648       2.05121
       1.86146      -1.65104      -3.68197
      -1.64058     -0.962603       3.18742
      0.746781     0.0630887      -4.78681
      -2.24604      0.192902       1.64159
      -4.91294       1.45315      -3.66728
      -2.36245     -0.810999       5.31472
     -0.400041     -0.332162       2.55057
       3.32185     -0.597357      -4.28142
         0.196      0.762065       4.24154
        -1.188       1.90377       6.96638
      -1.72252      -1.59317        2.8627
      -1.70783      0.472749      -3.25919
        -1.309      0.610144      -1.80675
   -0.00454523      -4.40869      -2.14276
      -1.13635      -3.07913      -3.15678
       2.25852      -1.63209       4.02613
       2.87093       4.31253       7.26194
     -0.586453      0.650681       3.14962
     0.0674161      -3.82022       1.90561
       -1.0339      0.420234       6.22696
       2.05189      -4.62096      -3.43648
     -0.661858      -2.86021       1.71225
      -1.84043       1.37458      -1.92237
        -4.324      0.250916       -6.3327
     -0.919559         1.079      -4.73291
      0.335441    0.00226334      0.396249
     -0.151666       2.15922      -4.57748
        2.3604       -2.3785      -1.18774
      0.877455       2.31763      -4.86006
     -0.284101       2.23005       4.34697
      -1.27067     -0.571993      -2.18282
       2.95155       1.05457       5.76774
       2.54299       1.40021       1.68196
       -3.1372       2.61595       3.64224
       8.06787       4.28249       5.30049
      0.357558       2.77564       7.19494
      0.566427      -6.03202       5.28099
      -3.04624     -0.807729       2.36082
      0.758735       2.10126       2.72394
      -1.63763      0.418946      -1.73238
      -1.03489       2.02657       6.23897
      -1.37003      -3.17729      -1.69328
       3.94636      -0.72844      -5.16172
     -0.390943     -0.286294      -1.77208
      -1.86966        -1.999      -3.08863
       1.03692     -0.598214       3.85482
      -2.74483     -0.815044       3.39746
      0.415737      -0.88939      0.952784
       2.19887     -0.467817      -5.89923
      -3.41779      -2.52957      -5.59265
       1.06169       1.01613      -3.25719
     -0.216852        7.1427       2.06698
       -3.5642      -2.10864      -2.41056
      -2.55956        0.2702       -1.3105
      -0.81008       1.59543      -4.08873
      0.798976     -0.500374       3.93258
      -2.60442      -2.63213       9.04996
      -1.80681      -4.27795       3.10124
      0.787751       1.49778       4.04295
      0.412351      -1.25017       8.04428
      -2.73049        0.6922       3.37299
       2.69753       -1.4639        4.6504
       2.32375      -0.10283       4.76968
    -0.0181032       0.85908       3.24447
       -2.8131       1.80113      0.812402
       4.31656       1.11686      -1.95021
      0.352439      0.328243       1.21589
      -1.60529      0.785481       1.76443
       2.88212      0.830733      -5.33363
       1.90805       3.37885      -3.24446
      -3.04899      -1.01062       5.19359
     -0.331614       2.30086      -4.64879
     -0.503908      -3.41596      -7.31386
     -0.509166       2.30382       4.40519
       2.04186       1.90794      -6.98184
      -2.10554      -1.76647       5.21694
      0.529471      -2.34945        2.5761
      -2.75282       1.01551       2.82286
       1.00669     0.0397374      -3.22233
       -1.3358      0.857795      -8.54044
      0.453258      -5.45725       6.22071
       1.58615       1.16965       3.54402
        4.5728       3.62415       2.63699
       0.47759       3.21319      -6.89844
     -0.409868       2.68466      -3.73975
       2.18572      -4.68147       6.39254
       2.30754     0.0124002       3.41988
      0.584752      -1.83226      -2.61792
      0.730678      0.782521      -2.87006
      -1.05156     -0.268376       2.33388
      -1.92939       3.97242       2.43591
       -1.0166       2.78703       2.98722
        1.0495      -2.48853      -2.92057
      -6.87089      -1.68254       5.46426
       2.08914      -5.88481       6.41327
    -0.0210058       1.56903        -5.653
       -1.4983       4.12959      -2.63044
      -2.47422       4.24925       9.26843
      -1.20315       2.01365      -2.08924
       2.78173      -2.74739      -8.52295
      -2.43172      0.179195      -5.31002
      -3.26314     -0.788877        2.4484
      -1.40453      0.133721      -2.00912
      -1.20423      -0.89493       3.30533
      0.100088       1.16185      -1.26924
      -3.31584      -1.50421      -5.10068
       1.92119       1.03592      -2.18973
     -0.300893      -3.00803       1.62935
     -0.591525      -1.71352       1.98891
      -1.39715       2.95167      -2.19074
      -2.81268      -6.84688      -2.18294
       2.67129     -0.344026      -2.42256
       -1.9013      0.143321       -4.9619
       2.07814       1.02754       1.62413
      0.116713       1.12306      -1.63614
       2.92496       -4.1765      -5.29575
      -1.79962      -2.50189       4.89697
      -0.53269     -0.416025       4.02831
     -0.775532     -0.545981       3.66296
      -3.96716     -0.144393       1.92974
      0.591751     -0.886717        3.3669
      -2.35399      0.464403      -1.17723
       -3.6166    -0.0341709      -3.29252
       1.20935      -1.24617      -2.14236
       3.09151     -0.801521       2.67347
      0.113218        1.9098       0.80111
     -0.128499     -0.720785      -1.34732
     0.0743806      0.442912       1.85881
      -4.05082      -1.33792      -4.17375
       1.16871       2.95528        2.7914
      -3.65452       3.08573       -4.4544
    -0.0163792     -0.710247        1.2205
       1.12761      0.138262      -3.50192
      -3.33463     -0.160734      -3.39391
      0.509626    -0.0479088      -1.27297
       1.72811      -1.02965      -3.16555
       1.25201        3.0367      -1.70736
        2.6052      0.787145        -6.558
       2.05789      -1.60537      -2.57296
      -1.39265       2.11068       4.99205
      0.404245      -1.53156      -2.46948
       0.61459     -0.379322       4.11679
     -0.753567      -2.12669       8.43488
      -2.39058      0.972243       4.14771
      0.642315      0.917945       2.77132
       1.29272      0.136784       3.30648
     -0.321538       2.57393      -8.09415
     0.0679637     -0.256864      -2.06015
       2.84104        1.8493       4.40955
       -1.6498      -2.88796      -7.04818
      0.944107      -3.02918      -5.01013
      0.474979      -2.28249      0.981541
       1.86477       1.13825       2.54601
      -2.98167      -6.01198      -3.10961
      -1.60884      -2.34953      0.816494
      0.340296      -1.24697      -3.36286
    -0.0194309     -0.516772        9.0703
       0.25614      -0.36124      0.395409
      -1.67311      -1.09449      -3.30244
       3.50047      -3.62596      -2.05021
      -1.13243       1.63298      -3.64152
      0.917548      0.845269       7.22022
      0.425207       2.04142      -3.16838
     0.0496893      -3.10882      -3.65316
     -0.916078      -3.57774       2.27013
     -0.876454      -3.91775      -2.38127
      -3.40095      0.213001        2.6993
       1.98517       2.08473       3.94098
       0.79285      -1.16199       2.12383
     -0.115303      0.617266        5.9526
       1.29935       2.78605      0.785556
       -1.1413     -0.196439      -1.92274
      0.597551      -4.11669      -8.79588
      -1.40662      -0.54166      -4.37412
     -0.334904      -2.13101       7.73355
        8.1526      -3.25269      -6.28804
       2.04143     -0.390091      -2.53643
     0.0408802      0.030297      -2.54721
   -0.00910463     -0.570042       4.27427
     -0.790468       0.48842      -2.20073
      0.530254      -1.33488      -0.86517
       4.87631      -3.07902      -5.75006
       3.23518      -2.52504       5.58639
       1.35509       2.65337       7.37224
      -5.36275      0.398304      -6.29577
       -0.3424      -1.45605       1.53425
       3.51493      0.679097      -1.65994
      -6.40337      -2.36449       4.55151
       0.93853    -0.0598005       2.91079
      -4.17075      0.769967       1.73646
       1.11341     -0.734698       13.6394
        0.5453      0.487941       2.53531
      -5.57232      -1.73057       4.12323
      -1.06986     -0.560386      -2.97847
      0.612149      -1.67742      -7.46578
       1.22706       1.62496       -2.2346
       1.71296       7.06719      -9.43486
      0.505557     -0.319087      -2.07341
       -1.0244      -1.57685       5.26264
       1.10694       2.32989       6.72339
       1.99871       3.44246      -2.33592
      0.599336      -1.51862       1.50797
      0.199469      -1.49462      0.902515
        -4.245      0.108725       2.31647
      -2.11988       2.99438       3.91439
      -1.99721      -2.85876      -3.59638
      0.136357      -2.35908      -3.13666
      -3.70183       2.13303      -4.42361
     -0.282407     -0.356471      -2.38277
        3.1893       1.77152      -4.63898
       1.39781        1.1192      -3.80877
      0.678251     -0.702538       1.24383
      0.794945      -1.89293      -6.43772
       -3.5185     -0.394439      -2.17589
     -0.779057     -0.259352       2.09283
       0.56565       -2.1667      -4.78245
       4.74059       3.75426      -5.68084
       4.54077      -3.98698       5.03845
       5.44558       3.88882       1.47766
       -6.2509      -1.44133      -3.76192
       1.04907      0.885375      -4.31165
      -1.18695      0.554089       6.99499
      0.160664     -0.192996       1.06659
      -2.44271      -1.47897        10.532
      -2.09793     -0.287769      -3.70514
       0.94086     0.0211558      -3.15497
      0.822924    -0.0698203       1.22727
       1.17496       1.97098       3.15076
       3.13316       1.38353      -2.15652
       2.07994     -0.798996      -2.49802
      -4.32113      -2.19301       1.63259
      -2.38936      0.787053        4.9346
       1.78129      -4.38586       7.49172
       5.25143      -5.22349      -6.54603
      0.419127      -2.36064       6.57856
       1.61979      -0.68393       3.27283
      -2.20515       2.44079       1.46995
       1.09471       1.80384       3.01861
       1.69768       3.41266      -2.49917
      0.165704     -0.440641      -2.84222
       4.25216       5.41133       8.51348
       1.94763       1.60618      -7.49324
      0.189858     -0.363955      -4.01276
       1.10974       3.14937      -2.58683
     -0.979234      -0.71034      -3.58769
     -0.308567       1.47744       1.31765
     -0.785323     -0.888676      -4.45734
       2.04609      -1.35369      -4.75784
      -1.38327      -4.32985       4.48104
      0.600624      -2.47197      -2.31932
       1.62714       2.07232      -7.08199
      -3.28732      -2.31267       5.92095
     -0.370812      0.616562      -2.43363
       0.67758       -3.0272       4.51904
     0.0993546       2.31069       2.44267
     -0.670816      -2.17634       3.42012
      -1.01467       1.11374      -2.81944
       1.24897      0.572039      -3.59722
      -1.02743       2.80514      -3.85116
       0.45561     0.0171857       3.78522
       1.75317     -0.503827       2.00729
      -1.96719      0.809254      0.825748
      -2.26558       4.87059      -4.68835
      -4.08126     -0.908894       4.92835
    -0.0892649       3.51208       2.03033
      -1.83988       1.43952      -2.08894
      -2.30108      -1.65496       5.78794
      0.960322     -0.138123      -2.67195
      0.131962       2.38925      -2.26893
       2.09101       1.75096       2.73383
    -0.0177496       2.74253      -7.24019
       1.09911      -1.16976      -2.27532
     -0.136949       2.34066       2.74694
       5.36255        2.4412       3.06987
      -3.76886     -0.914601      -2.75589
       4.29401      0.623728         -3.88
       2.29244       2.42216      -5.15646
     -0.595057      0.521621      -4.35196
      0.151203      -2.79755      -4.81741
      -1.11492      0.136878      -5.79374
       -2.2591      -1.90127       2.17309
       4.18245       0.13083      -3.93172
     -0.293443        2.1194        5.5259
      0.543287     0.0650841       4.88919
      0.918845     -0.542478      -4.13005
      -3.27643        -4.476      -3.14728
      -1.69052       2.84817      -4.73808
     -0.413345     -0.458924       1.88906
       2.34346      -3.05454      -2.31851
     -0.996253       2.75604      -1.73628
        2.5954    -0.0813862      -4.90052
      0.515601       1.31362      -5.16248
      0.695035       3.18469       1.98445
       1.09446     -0.452832       1.48318
       2.37374      -1.68534       2.15623
       2.66227      0.337102       2.04936
      -3.97967      -3.47666       4.70587
      -1.53088     -0.827077      0.770582
      -4.79356       2.44675       4.22883
      -4.80306      -1.79375       -6.1805
      -1.09444     -0.587884       4.09221
       2.58335      -1.74289      -5.68266
       5.39004      -1.42318      -5.31866
     -0.590243      -4.77583      -4.20948
        4.1678      -1.01944      -2.09691
     -0.191116     0.0374711       2.71384
      -1.76176       -1.3269      -1.51854
      -4.63839      -1.29489      -9.82062
     -0.903626      -1.42643       3.01755
       -2.5279       3.11594      -3.51007
       -3.3629       5.00619      -7.25899
     -0.949498       6.27661      -7.72379
       0.65782      0.890088       4.16884
      -2.44378       1.14779       2.28932
       2.54997      -2.28017      -2.47294
        1.2495       0.15746     -0.842025
     -0.674782       1.41194      0.739791
      -2.35429      -2.73664      -1.24225
       3.88836       2.80811       -5.1364
      -1.43831       6.34248       1.60412
       1.13571     -0.454265      -7.13736
       3.85019      0.146705       5.02318
      0.586807     -0.673328      -3.49149
    0.00507249      -2.87705        4.7277
     -0.933515      -2.49023       1.78518
       1.53902      -3.15148      -6.31532
      0.161331        2.1193      -2.45441
       -1.4744      -1.78128      -2.65946
      -4.17753      0.122588      -1.69656
       2.01683      -2.26275       3.73952
     -0.449976       1.66966       -4.7188
      -1.76502     -0.375618      -2.27558
       1.00031      -3.16123      -1.39458
    0.00390772       2.04628      -6.40317
      -2.12763     -0.427508      -3.60957
       2.55136       7.88717       6.56965
       2.73047       2.16187      -6.51479
      -3.09899      0.642742      -3.58796
         6.444       4.14967       10.5063
      -3.39715      -1.30821      -2.95652
      -1.63016       1.29473       -10.712
      0.434038       2.57017        -1.155
        2.4882     -0.713677      -2.33386
      -2.39352     -0.704876       1.62668
     -0.390363      -1.25366       5.44394
       1.58165      -1.24204       1.20339
       1.23525      -1.36147       2.61129
       0.86924      0.631936      -3.60895
      0.177521      0.263864       3.82813
      -2.68131      0.495768        2.8072
       6.69966      0.701955       6.08608
       4.81131     -0.564171       2.56612
     -0.770335      -5.10148        5.5533
       -1.2413       4.15519       3.39134
      0.583609       1.70533       3.45193
       -1.9544       2.40093       2.85265
      -4.01985       2.76616       6.12143
     -0.675162      0.877921       2.02249
      0.496747       2.68984      -2.87302
      0.789874     -0.588492      -2.29732
     -0.256589       1.18391      -5.23019
      -2.02894      -3.14193      -2.73376
     -0.202646    -0.0196885      -3.93121
      -2.49893       1.41738       5.07143
      -5.40057      -0.54108       4.04405
      -1.24839       1.55704      -3.59213
       8.82036      -2.93788       7.24896
      -3.33747      0.620592       5.34871
      0.526088      0.809964       4.79032
       1.23893       2.80107       2.88663
     -0.489468     -0.952711       -2.0977
      -1.27928      -6.11722       4.59022
      0.461189      -1.01104     -0.637654
       3.59234       3.35618       2.96118
       1.40366      0.489863       1.64973
     -0.128796      -2.08864       -3.5329
       1.86706     -0.415085        4.6466
      -3.24819      -1.33724      -5.52386
      -1.45975     -0.955362      -1.48399
      -3.16421      -1.84003      -3.10369
      -1.00608      -2.91026      -2.18628
      -2.74791       1.50838      -2.86364
      -3.38935       1.93706      -4.34959
       1.98305        4.0014       8.14913
      -1.27149      0.331766       1.64586
      -3.57822      0.993405       3.29498
       1.69934      -2.72243       2.92411
       1.96916      0.193233      -2.13797
      -1.30743      -6.18434      -2.77448
       1.99327      -3.92155      -3.32789
      0.743214      -3.59845      -6.18218
       1.24833       -1.5238      -3.73941
      -1.90037     -0.141538     -0.958816
     0.0331687      -3.03865       3.41447
      -2.30512       4.98593       5.77054
        2.5932      -2.14406       5.04547
       2.68721       1.81067       2.20804
      0.465551     -0.330342       6.25301
       -1.0134       5.00662      -4.90002
       1.54353       4.96315      -5.80408
      -1.65627     -0.621114       5.30638
       1.25254       2.33416       2.04438
       1.31736       2.66241      -3.46097
     -0.947504      0.107769       2.67087
        2.0239     -0.386344       3.18719
      -1.71217      0.454782       2.98982
      -2.10375       2.66038       3.06603
     -0.729921      -1.32085      -1.10969
      -1.01608      -5.19659      -1.73047
       4.83725       5.14178       5.95313
      -4.04899      -1.17382       6.35962
       3.71899       1.55914       2.18543
      -6.15065      -1.40961      -4.14994
       0.44883      -2.75646       1.33039
      -4.18975       4.20018       5.65915
       2.24574     -0.165524       3.51208
      -1.05348     -0.719105       -4.1081
       4.46382       -2.0956       1.77342
      -3.16208        1.8333       1.49376
      -6.99383      0.394159      -5.66491
       2.09746     0.0604597      -1.36633
    -0.0853916       0.57119     -0.648053
       2.52827      -2.12637       2.08337
      -4.13703      -3.67244       6.54297
      -3.58541     -0.893089       2.66062
      0.239098      -4.78864      -6.03929
       3.99196      -2.08854      -5.97758
        0.7798       0.24325       1.46693
       -3.2912        8.8127       7.01105
    -0.0822681      0.621073      -2.09835
     -0.456327      -2.19963       3.27551
      -1.60719      -1.86403      -2.47254
    -0.0923019       2.85367       4.46964
      0.293225       -3.7403      -7.78937
       -3.7155      -0.92685      -3.99798
     -0.642478      -5.11265      -8.65239
       3.84674      -0.02774      -9.43556
     -0.524913     -0.480812       2.81637
       1.63497      -2.73721       3.48916
      0.197636      -2.87699      -6.16433
       0.10126     -0.603904         2.227
       2.10858      -0.94451      -3.99688
     0.0916454      0.841587      -3.15551
       2.11563       1.19834       5.16098
      -1.38043     -0.276139       2.06458
      -2.11997      -1.25937       2.58565
      -0.72229      0.158281      -3.32315
      -3.21995      -5.17493      -3.74411
      -2.61816       3.30945      -1.86133
      -1.26517     -0.730101       -1.5537
      0.808961      0.393474      -3.49128
      -4.03946     -0.243334       6.35077
      0.440485      -1.15784       2.61242
     -0.832727       3.95029      -6.37178
       8.65179       3.96081     -0.675764
       3.06743      -4.05385       3.41936
      -1.95037       -4.1837      -5.17339
     -0.176169       1.35918      -8.59591
       2.80388     -0.997093      -2.99503
     -0.166582    -0.0694328      -5.97239
      -5.80924      0.835012      -7.85616
       1.53213       2.49149       1.86516
      0.637361      0.109066       2.47699
       5.11017        1.5614       1.19878
      -3.08526       1.87035      -4.61477
      -2.04323      -2.31502       4.17063
       -2.5869       2.35964       4.77594
      -1.56482        -1.011      -2.38022
        2.7462        1.6691      -4.33135
     -0.597347      -1.10543      -1.06752
      0.347539     -0.782361       5.68052
      -1.72711     -0.220075       2.69502
     -0.505418      0.580289      -3.76165
        1.4073      -1.73007       -4.9284
     -0.754323       -1.1706       10.8498
       1.51479      -1.46056       8.62165
     -0.891371       -3.4142       8.84452
      -5.58319       0.15753      -9.24991
       -3.8801      0.396357       7.59369
      0.270868     -0.327792      -1.93553
      0.902573       0.72873       8.96065
      0.293872       2.22667      -3.71858
     -0.144882     -0.818627      -1.28166
       1.96133     -0.785963      -2.96454
       2.68616       1.92861       2.96822
      -4.28962       4.52718       1.32395
       2.27837       2.01291      -2.24101
     -0.731389      -1.72254      -1.79543
      0.198911       2.02835      -1.37143
      -3.18543      0.313826      -5.56344
       3.30436       0.98922      -2.98096
      0.699408       2.28796       -4.3487
       -1.6562      0.668226      -3.58943
       1.07237      -4.11772      -5.24262
      -3.05383      -1.48024      -1.79759
    -0.0127287      0.457534      -2.60172
      -1.06158      -2.47687      -2.32638
     -0.103089    -0.0873602      -1.41282
       2.30049       1.95563       2.94226
     -0.582341       2.42705      -2.19797
      -2.50108      -4.80542      -4.19962
       1.35762      -6.96652      -8.50753
       2.46865      -1.43641      -6.04754
     -0.423875     -0.282515      -5.64731
      -2.41829      -3.47348       1.74676
       -0.6889       1.52177       3.87465
        1.5075       1.54387       5.41367
      0.239174       3.73631      -1.23883
      -3.48136       2.82288       4.65487
       4.07541      -1.36955       -3.3684
      -0.37474      -0.46281      -1.56375
       2.77865       1.19626       2.56978
      -7.53611     -0.915352      -5.10991
     -0.923357      0.376466       6.16232
      -3.97303       -2.2773       7.25423
       1.97422       1.70833      -2.26282
      -1.13086       1.45278      -2.68371
      -2.28165       1.40527       3.46255
       1.04525      -2.82944      -2.35082
     -0.440187       1.31413       1.63912
      -2.20792      0.460775       4.12485
      0.432234       -2.9554       5.35154
       2.34577      0.792767       0.75504
      0.991298       2.90178       1.79142
     -0.278214      -2.53861      -4.05442
      0.284064       1.14369       5.74743
      -1.90442       1.01198      -1.12524
     -0.127923      -1.14277       4.36674
      -5.51732    -0.0115236       1.88545
      0.673293       2.40353       1.77503
      -1.52744     -0.595248       3.90365
      -1.72543      0.282916      -1.80199
      -2.35825      0.701709       3.11079
       1.95316     -0.793916       4.10668
       1.06089       1.24559       5.86113
       1.10011      -1.37514      -2.86619
        1.6616      0.348063      -2.71093
      0.444824     -0.895398       4.23194
     -0.584063       1.81476      -2.91339
     -0.947295    -0.0117852      0.415942
     -0.525198     -0.339427        3.5963
     -0.857903     -0.376661      -3.09193
       6.70334      -1.56377       6.25951
     -0.980346      0.496948       2.46079
     -0.145065       2.42117        2.5724
      -1.43717      -1.86222      -2.83834
       2.08895      0.128305      -3.45892
      0.480655       1.38588      -3.09494
        1.0999      -1.44593      -3.06914
      0.331378      0.928833       1.55236
       4.22557       2.22163      -7.07462
      -4.71447      0.700116      -3.34526
     -0.886797      -2.18823      -3.34573
      -2.29105      0.755334      -1.71379
     -0.708626       0.62875      -3.35988
       -0.6631      0.718291       -2.1244
      -1.46375      -1.25981      -2.64104
      -3.15938       3.72555        8.8213
       1.99001       0.93725      -4.80846
      -3.54859      -1.00126       1.10566
     -0.675248     -0.559786         2.509
       3.80075      -5.07228        1.2832
       3.19901      -2.38847       1.74241
       -2.6029      -2.62867      -2.93402
      -2.32948     -0.515702       3.68289
      0.905156      0.768254      -1.12761
       0.26545      -2.37593      -5.71113
       5.23317       1.81343       3.30066
       5.62536        1.0966       1.27323
     -0.773234       1.42692       1.82697
     -0.699623      0.422903      -3.47258
     -0.652444     -0.612829       2.22594
       1.06618      -1.70224      -3.25334
       1.82662       -1.2488      -3.01309
       1.83167       5.64304       3.59449
       1.56053      -1.37116       5.01945
       1.19582       2.33757       3.34629
       1.04363      0.861832      -3.82073
       1.61798       5.83361       6.91522
       0.98485     -0.215584       -3.5839
       4.76883      0.272981      -2.98805
     -0.363302      0.297564      -1.55984
     -0.380108       2.83736      -5.90158
       2.33582      -4.33821      -5.86765
      -6.32531     -0.962962       2.44597
      0.465602        5.4577       -4.7206
      -6.41615      -2.76281      -3.41446
      0.914925       2.91236       5.32165
      -0.44947      0.321508     -0.982963
     0.0248311      0.657458      -2.45192
      -1.92392       1.74759       2.19765
     -0.958943     -0.046679        3.6914
      -1.55289      -2.05614        6.0726
       0.23173      -3.00543       5.86451
       3.51408     0.0741849       7.75935
        4.0631      0.312336      -3.84988
      -3.80803      0.814113      -1.50467
       -1.4775       1.15007      -2.19453
       3.41736       2.25256       5.39459
     -0.929905       3.05924      -2.58373
       2.35884      0.984762      -1.54882
      0.798581     0.0227172      -2.76546
      0.307154       0.84368      -3.38222
      -1.89268       1.38679      -2.37296
     -0.215892      -1.94192       2.50164
       1.02775      0.566463       3.59128
      -2.30093       1.04699      -3.62275
      0.913875      -1.32419      -3.10886
      -7.36162       5.72018       -5.7694
     0.0146104      -1.06484      -4.87334
      -1.22356      -4.59062       3.90162
      -1.72616       1.70473      -3.17408
       3.39314     -0.234657      0.501987
      0.958101       1.43547       -4.1607
      -2.22755     -0.902746        3.7093
     -0.834098       4.21892       8.75884
      -2.39777       3.81821      -3.73975
      -1.11831       2.68066      -5.22967
       8.55977     -0.746966      -5.67205
     -0.644959      0.945011      -2.42408
     -0.513993          3.06      -1.42299
       2.25237      -3.46151      -1.98175
       1.78691       5.13782      -1.41452
      0.107955      -3.36827      -7.32675
       -2.1331       2.30033       1.13677
       2.26659      -1.68103       7.64967
     -0.412837      -1.21814     -0.849113
       2.44491       -2.3304       3.35743
      0.724437     -0.361244      -3.22357
      -3.47779      0.314388      -2.17877
      -2.88667      -1.44668        2.1882
      -0.35901        1.8285       3.32305
      -2.48368       1.64656       1.87759
      0.729088      -1.09558       1.62572
       3.36271       1.96557       8.42148
      0.265769     0.0846861      -1.84037
      -1.00222      -1.33646      -2.23475
      -3.87622      -1.62002      -3.16088
       4.09363       1.13929       3.72544
      -1.13285      -1.51333      -5.30846
      -0.11023        1.7328      0.707407
       6.91019       2.52796       4.97612
       1.26761       1.04905      -5.64533
       1.13734        1.1802       1.62496
       2.86787      -1.67183      -2.86923
       4.46198      -3.39185       3.74541
       1.93564      -2.18989      -2.83022
      -1.31068       1.75039       3.97999
      -1.36426      -1.08212        1.0171
      -1.71632        4.5192       0.78822
       3.70136      0.787898       4.24321
       1.16472       8.35471       3.90176
     -0.521746       3.30271      -4.64483
       -1.0764     -0.288955      -2.75739
       1.84118      0.938344     -0.917925
      0.453284       1.29286      -2.24642
      -5.38874       4.08677      -4.98372
      0.858977     0.0560205       2.40213
       1.26846      0.338904      -1.83178
      -0.54064       2.01196      -4.13006
      -2.21488       7.46276      -6.45087
      -1.06695       1.16574      -4.89721
     -0.409725       1.30877       5.17073
       2.12208       4.83105      -7.03147
     -0.197079      0.136967        1.8883
       3.90028      0.462384      -2.19535
       2.71958      -0.91318       3.53919
     -0.285622      -3.96573       2.07933
      -2.34129     -0.227851       4.55851
       3.10824       3.72726      -2.64537
      -2.14842      -2.05803      -4.78181
       6.56883      -4.32659       4.82031
      -1.43347      0.840059      -4.25476
      0.590025       2.36181      -3.16142
      -1.71445       1.66123       6.64194
      -5.45415      -2.42334       6.26419
       1.88627       5.03055       4.09555
       3.63437       1.01119         4.276
      -1.08552       8.35895      -3.17685
       2.25599     -0.330901       4.12996
      -2.09886      -2.55202       2.14487
        4.8226       2.71912      -5.44997
       2.44253    -0.0278276      -6.49874
       1.65432       2.21866       4.50743
       1.84708      -3.01746       3.71666
     0.0579037      0.385887       3.92728
       1.56212    -0.0418521      -2.45774
       2.30087      -2.36392       1.43912
      0.164081       4.87508      -2.48756
       1.59135      -3.07935       2.78103
      -1.04365      -1.74573       5.78214
       2.58292       1.86647      -5.39545
       5.34921      -6.05645        7.0824
       2.50584       2.84142       4.84065
      -1.52958     -0.102973        4.7168
      -1.18391       2.26018       4.04769
       1.67085       1.31201        3.9486
      -1.82001      -2.05596       5.81784
      -3.71907      0.543631        8.8526
      0.820952      0.400784       3.41713
      0.862784       3.18769        4.1756
     -0.497511      0.492368       1.54317
      0.137547      -2.09661      0.793994
       0.48506      0.856263      -1.45606
         8.923      -7.39716       3.69375
       2.51586      -1.01783        9.2333
       2.21823      -1.84982      -2.94062
      -2.95203       1.56455       2.81028
       3.80915       -1.0676       6.05132
       1.44489       2.63352        3.6547
      -0.98756     -0.144514     -0.351849
       2.09017       1.30205      -3.02133
        2.0762      -0.28608       5.28135
      -2.69781        2.8494         4.142
       1.22051       1.26876       5.57445
      0.442858       1.45398       1.28071
       0.62168       4.62067       3.57799
      -3.56828      -1.94082       2.95387
       -1.1359      0.243164      -3.11792
       1.11196       4.06838      -4.11783
     -0.396657      0.497345      -1.89233
      0.678332      -0.15068       3.08517
       2.17438       1.20326       3.75231
       4.68463       6.23034      -6.70495
     -0.475489       4.95719       4.22046
      -1.05382      -3.25602      -2.22894
      -7.15163      0.101332        3.8564
        2.1881      -4.16667      -10.5653
       2.34712       8.38435       6.53284
       2.90063      0.647458       3.46397
      0.463616      -4.61255       3.17962
      0.277506      0.719763       1.31742
      -0.50922       1.39651       -3.4545
       -1.2201       2.29675      -10.0936
       -1.0483      -2.23006        1.3769
      0.688371      -5.15682      -5.14504
      -3.90565      0.178534      -3.55131
       1.96396      -2.71167       -3.6416
      0.884922     -0.685943       4.49158
       3.79729       9.08342      -9.65165
      -1.02452       3.51523      -1.87229
      -1.62262       4.18497       9.20235
       1.80549      -1.57611      -3.18449
      -1.99367      0.327972      -2.35622
      -2.81491     -0.947412       -6.4201
      -2.44319      -1.67997      -6.82401
     -0.437086     -0.853413       5.04176
      -0.79005      -1.63245      -3.76806
       -1.1698     -0.147237      -1.17093
      -2.37751      0.818457       1.93248
      -1.65321      -4.11019     -0.844689
       -3.1699      -2.98029      -4.56082
       2.49494      0.847605      -2.73018
      -2.77329      0.791667       1.94406
      -3.70166       3.63383       3.30054
      -2.56456       3.30836       7.26704
      -5.01661      -2.57394      -4.56702
       2.00713       -0.6791      -2.83965
      -2.23073      0.190752      -2.35115
       3.30997      -1.44812       4.23339
      0.472623     -0.338588       -3.8527
      -3.95448     -0.743711       2.44396
       1.80696     -0.765624       1.98634
       -2.0545       2.42969       2.36896
      -1.61852      0.145969     -0.725913
       2.20029       1.13551      -3.15602
       4.92539      -1.06343      -5.67537
      0.596077      0.541906       -3.3192
       5.61168      0.111906      -3.70703
     -0.989081      -4.35883       2.42649
       3.16587     0.0455961      -6.28882
      0.682195      -1.16551        1.9685
       2.95158      -2.17003       4.02921
      -2.06289       6.15595      -3.07045
       1.58656      -4.60722       2.13756
      0.648697       -2.2927      -4.81389
      0.110026       1.08861       2.54269
       2.31881     -0.161913       6.35202
      -4.20591      -5.04568       4.22057
     -0.306709       0.11453       3.83508
      -3.20886       1.19521       -4.5177
       1.40552       2.42232       2.35839
      -1.15333      0.963242      -3.11466
       2.49642      -1.58571      -2.89557
       7.93544      -1.80154      -4.08495
      -6.24082       2.38732      -4.24826
        -1.012       1.96835      -6.48543
       1.60864      -2.36994       -4.6031
      -1.23672     -0.828958      -4.15551
       3.33254     -0.688357      -8.98199
      0.421865      -1.00132       3.24124
       1.01224      -2.67231       6.59713
       1.24691      0.476457      -2.61955
     0.0666345      -0.21627       2.72039
       2.52996       5.15121       5.55625
       3.35074      -1.58442      -3.21767
       2.17633       1.43544       -13.205
     -0.431696        1.0174      -2.95852
      -0.59898      0.683111      -1.71165
     -0.194648      -2.12172        3.3439
       1.59408        1.5516      -2.50371
       -2.6518      -1.18501      -1.99894
       3.41126       6.83008       3.85279
       4.23772       3.27119       4.77327
     -0.401532      -0.62713       2.22004
       1.63547       2.47163      -3.22746
       2.57688      -2.36866      -2.75189
       2.14678      -3.78395       5.40964
     0.0525052     -0.656914       1.43648
       3.51843      0.723211       4.33618
       2.36373      -1.06121      -2.83016
      0.500607       2.13599       1.34004
      -2.73512       2.18756      -5.52775
       1.40428       1.44549       8.49131
     -0.955074     -0.684855       6.84259
      -3.02871      -1.13221       2.51435
      -1.10413       -2.4455        -1.355
       3.47731      -3.59561      -5.50546
       2.99238    -0.0913241      -6.96991
      0.752179     -0.549294      -2.17444
      0.953921      -3.49804       -3.1476
     -0.156913       2.18727      -3.36788
       2.44659      -2.09559      -5.08533
      -1.27807     -0.382086       4.33482
      0.186258       1.66473      -4.17888
      -2.83814       1.54839       1.56278
      -1.62276      -3.19174       -4.9551
      -1.20383       2.22812       1.73102
      -1.27018       2.72734       1.36321
      -1.36726      0.586913       2.50282
      0.392213      -1.90219       2.49715
      -1.77644       1.45802       -5.0326
      -2.11973       2.01871       3.57399
      -1.76179      0.459119       2.78129
      -4.61606       1.36482       3.86297
      0.266826     -0.799102      -3.42025
       4.67396       4.61272      -5.12788
      -1.38219      -4.53709       5.09131
      -2.10602       1.52335       -4.6798
       -1.7878      -2.50493      -1.00476
       0.41013      -4.43697       2.91591
       1.09193      -4.24797       3.57671
       2.98503     -0.247608       1.05246
       2.47382       2.94782      -3.10151
        2.6579       0.94867      -2.56581
       3.58247      -3.50478       3.53409
      -1.61627     -0.849106      -3.00822
     -0.157325       2.07709      -2.43462
      -1.00844     -0.949422      -4.06829
       3.41451       2.10399       4.58666
      -2.35627      0.136269      -1.14769
       5.05407       2.88379      -1.72856
     -0.460026     -0.851425      -4.63998
      -1.45083       0.48884      -5.59776
       3.22291       1.25571       5.37375
     -0.770777       2.03078      -1.84781
       3.33717      0.343718      -4.70856
       3.02347      0.217605        -8.072
       1.82414      -1.77541       2.99224
     -0.503796       1.49077       2.45146
      -1.52935     -0.137319      -2.30465
       1.37653       1.19654      -2.72599
       4.01768       4.50364      -5.91515
      -1.79783       2.13189       2.48589
       2.51249       2.33718      -1.79012
     -0.954293      0.714188       1.67557
     0.0336452      -2.44442      -3.22925
      -2.13991      -1.03691      -4.85551
       3.71575       1.73268      -3.16138
       1.37687      -3.73836       4.01465
      0.467678      -1.89009      -3.55238
      -1.11581      -1.10323      -1.62992
      -0.71622       1.18718      -2.89149
     -0.839316       3.83401       1.54753
      -4.82943       6.82651       6.14122
       0.32245       2.00005      -2.74126
        -3.661     -0.848798       2.40763
      -4.56992      -0.40455       1.82629
       1.96507        2.4203       2.73533
       1.47918       2.08216        2.1428
      -2.44592        1.8639      -5.81852
      0.735917       1.54593       3.81546
     -0.595076     -0.342817      -6.21279
       1.63327       2.19886       1.87238
       1.61156     -0.635755       1.68912
      0.328393       2.09529       1.90947
        2.4708       1.84566      -3.23823
       1.16835     -0.185586      -3.96749
      -1.31166      0.827887      -1.03665
     -0.993329       2.51034      -6.21245
       3.80341      -1.43154      -4.30995
     -0.947897       1.02179      -1.75393
       1.34878       1.06958      -2.85991
      0.962671      0.190053       -0.9457
       1.19767      -1.65923      -4.78733
        1.5295      -3.54062      -1.22369
      -1.13732      -4.29153       3.60353
       3.85993      0.153968      -5.32332
      -0.62553      -1.96804       4.48681
     -0.641258      -1.94604       3.42752
      -2.29073       1.31446      -2.60262
      -2.05943     -0.144769       -3.7474
     -0.353914       -1.9757      -5.50116
      -4.67036     -0.537195      -2.71397
      0.607186     -0.507957       4.92994
      -3.28462    -0.0685778        2.2138
     -0.251684      0.220098       2.33858
       -1.1518     -0.740813      -1.53561
       1.54145      -1.75111       3.57209
      -3.82008      0.753526      -5.29393
       1.60803      -0.28547       -6.0294
       2.02226     -0.521588      -2.39523
       2.55048     -0.949696      -2.60272
      -4.09143    -0.0390887      -3.58028
        1.5501       3.12117       3.95985
       1.86956       1.70605       2.51426
      -1.16476      0.414894        6.8872
      -1.93297      0.729583      -2.53684
     -0.402983       1.54092      -4.21317
     -0.865665       1.92402       3.08256
      -1.88344       -3.0993        1.2444
       2.01932       3.67167       5.21094
      -1.18958      -0.34205       1.22964
       0.69513      -2.54134      -3.46481
     -0.542199      0.195543      -2.97183
    -0.0762877     -0.488314       5.33522
     -0.128315     -0.849693      -3.90135
       2.05902       3.10385       6.43926
      0.688414      0.271646       2.99405
     -0.615989       1.27353       2.07988
      -6.55114       1.04938       -3.7262
       2.93402        4.7031       4.45671
       4.49228        1.2747       3.94767
      -2.00536      0.789063       2.24776
     -0.843582      0.665244      -2.18335
      -2.17974      0.969376      -6.43902
       1.83276      -2.28625      -6.83799
       2.83532       2.99489       2.03941
      -3.56976      -1.71537      -7.74115
      -1.59754      -1.91557      -2.04955
      -1.52611      0.205419       1.71113
     -0.422443      -3.05988      -3.56375
      -2.38824      -3.06881       4.02626
      -3.41004      -4.06298      -2.57171
      -1.96505      0.784608      0.386881
       3.24632     -0.267569      0.772655
       1.95065      -2.22524      -5.19806
      -2.15403       2.27331       -2.9076
       1.21117      -1.30707      -5.45511
      -1.15781       5.68464      -7.80952
       1.04573       1.59039      -4.17415
    -0.0702671       -0.1831     -0.778042
      0.957778     -0.394898       2.21148
       4.10669       4.52602      -5.99542
       1.74051       1.12613       2.81751
     -0.117187      0.464774     -0.679875
       1.38874        1.7082      -3.81055
      0.481216       0.20229        3.6407
      0.350319      0.915196       -4.9567
      -1.24822      0.159059       6.06969
       -1.2189      -1.35319       1.20564
       4.17604      -6.63249       4.82461
       2.64137     -0.409568      -5.70911
      -2.27951      0.303339      -1.22682
   -0.00466238       1.00811       3.03396
      -1.39811       1.55726       5.44172
       2.82428       7.50894       4.27228
      -1.58706       3.21897      -7.08496
      -1.15522      -1.38665       1.89091
      -2.55233      0.380708       3.54787
       4.10004      0.645058       3.81598
      -1.94515      -1.61245      -5.49903
      -1.68878     -0.348724       1.92973
      0.711915       2.81303      -6.39636
       3.74955       3.95437      -6.54931
      0.749505      -2.60646     -0.927663
    -0.0420888      0.388954      -1.88692
      0.302339      -0.56331       2.41417
       2.61622      -2.72322      -6.52933
      0.381504      -5.12745       2.66179
      0.405493      -1.41931      -1.91457
     -0.888961      0.349213      -1.41039
      -1.20969       1.43609        2.3681
       7.27186      -4.91045        3.1898
       4.39108      0.387135       -2.8722
       5.16068       5.20063       4.38473
     -0.483756      0.726405       1.49713
      -1.98862      0.848356      -6.71847
      -3.43834      0.324113       4.35859
        1.8203       3.87803      -4.22169
       1.10083       4.50418      -5.52198
       3.25872     -0.779605       3.20065
      -5.03906     -0.251149      -6.32589
      -2.54866      -4.69272      -4.48629
        5.4894       -3.2573       -4.1638
     -0.991855      0.409357      -1.99619
      0.643828       0.19428      -2.34311
      0.374608      -2.26215       3.40992
       3.89715       3.81768       1.48632
       3.14091       2.52469      -1.46595
      -5.85871      0.556874       -7.4866
      -1.57774        9.3303      -5.57895
      0.477722     -0.741714       3.56284
      -1.30783     -0.673574       -3.2674
       -1.9523      0.562459      -5.37542
      -5.68936      0.973917      -2.56901
      -2.58721      -3.02281      -2.25463
      -2.98034      -2.06473      -3.79965
       2.60471       1.59656        3.2203
      0.258101      -0.81956       3.70414
      -0.13645       1.64644      -3.74896
      -2.13422       3.13104      -1.68525
       1.54905      -4.01983       1.46446
      -2.09867      -4.52413       4.71627
       2.73129       1.40438       -2.4486
      -5.98171      0.395339      -4.34042
     -0.968969      -1.07456       4.71427
       4.19336       0.21518      -0.98592
       1.48352       1.07308       1.82724
      -1.58747      0.582525       3.51723
     -0.246891      0.388419       7.75233
     -0.552632      0.519781      -2.40564
      0.710285      -5.61521      -3.39487
       1.81311       6.72015      -7.01444
      -2.42574       4.50124      -8.05616
       -5.4629       3.68896       1.55186
     0.0284023       1.74608      -4.69789
       -1.8251        2.7909       6.58311
     -0.991304       2.35712       4.37975
      -4.48863      -3.02681      -10.3243
       1.93938      0.449246      -4.46763
       -1.2255       1.40294       2.30367
       3.26979        -1.617      -1.87273
       2.37369      -5.66077       3.06637
     -0.584082      0.308565       3.60241
      -3.02949      -1.46685      -5.54568
       -1.8497     -0.978558     -0.880632
       1.73997     -0.325189       4.97635
       1.90283      -2.18856      -4.79135
      -1.13393        3.8689      -3.56202
       2.51043       2.25099      -1.78522
       1.48894     -0.795013       2.08032
      0.154123      -0.92744      -1.61935
      -3.35149       1.44899      -3.47294
       1.61415      -0.70443       4.18761
       1.01098       2.81361       3.01193
