#             x             y             z
    0.00843451    -0.0601911     -0.115221
      0.753685     -0.798009      -1.01499
       0.34428      -1.10681       2.22093
      0.888109      0.794281       1.12278
      0.442735      0.214343      0.522518
      0.682275      0.149539     -0.173045
    -0.0991204     -0.219852      0.185466
      0.593325       1.35031       2.01518
     -0.679272      0.618229      0.938169
        1.6626     -0.467025      0.955072
     -0.178684      0.261772     0.0224113
       0.92437       1.12738       1.91995
      0.233466     -0.562363      0.193512
      -1.07842     -0.378706     -0.162302
     -0.128446     -0.455351     -0.152632
     0.0655928      -1.34371     -0.582579
      0.257202     -0.694282      0.175347
      0.394545     -0.682074     -0.124929
      -1.91782       0.24539     -0.294713
     -0.411019      -1.30557      -1.76308
      0.602637      -0.11192      0.511151
     -0.342074      0.422357    -0.0648003
      0.198593     -0.970238      0.440534
      -1.69706     -0.470419       1.02838
      0.668565      0.532088      0.106287
     0.0727728      -2.83484    -0.0277036
       1.18803      0.146098     -0.359532
      -1.41144      0.823457     0.0234932
      0.237208      0.560955      0.553762
     0.0306031       0.32528     -0.198767
      0.827306      0.732858     -0.529185
      0.335723     -0.157018      0.119709
     0.0905516       1.15248     -0.813873
      -0.83483      0.267108     -0.654219
     -0.974533    -0.0391643      0.578487
      -2.10307     -0.168359      0.603309
     -0.213355      -1.63857   -0.00614978
      0.695252      0.474593     -0.560288
      0.433177      0.143641       0.28135
      0.163109      0.892107       2.10078
     0.0832236      0.578007        1.5248
     -0.282647      0.281065     -0.299252
      0.158199        1.2698     -0.540754
      -1.59078   -0.00419596      -1.17407
       1.03035      -1.41578     0.0907795
      -1.46233     -0.981736     -0.499052
       1.10862     -0.246694      -1.56575
      0.988718       -2.9117    -0.0860698
       0.59917      -1.45279       1.93908
      0.397203      -1.02581     0.0510454
      -1.16014      0.576463     -0.185837
      0.611396     -0.139426       1.07574
      0.227117      0.300836     -0.894077
      0.867567     -0.243065      0.422969
     -0.452059      0.169394      0.286363
       1.33389      0.197215     -0.840476
      -0.86859     -0.108326     -0.258328
      -4.40288      0.247317     -0.534345
       1.15242       1.09782     -0.635674
      0.187057      0.707725     -0.458906
     -0.842764         0.175     -0.790753
     -0.796659     -0.256518      -2.33275
     -0.976794       1.04809      -1.86129
      -1.13561      -1.28744       1.82298
     -0.225073      0.111271       0.99855
    -0.0572119     -0.691436     0.0763241
      0.103816       0.16571      0.759831
    -0.0874043     0.0218401      0.313982
      0.863242     -0.610964       1.22737
       1.18126       1.41686     0.0432414
     -0.182649     -0.869288     0.0676566
     -0.758649     -0.878731     -0.466542
      -1.35654     -0.444537     -0.249452
    -0.0964136       0.37067       1.70741
      0.279469      -0.93501     -0.804711
      -2.12285     -0.731059      0.802432
     -0.740428      0.364753     -0.399941
      0.464091      -1.03515     -0.492854
      0.546738     -0.350185      0.161676
     -0.257746     -0.633985     -0.385753
      0.575829      0.548376     -0.457153
     0.0907355     -0.235002      -2.56318
    -0.0698467      -1.55727        -2.455
        1.3935      -1.23561      -2.74633
      -0.30893      0.290136      0.712121
     -0.832374      0.807812      -2.26123
      0.511517       2.11014      -1.00675
     -0.967523      0.254154     -0.195872
     -0.980621      0.680043      -1.29946
      0.150093       1.06884      0.759281
      0.151779      0.310912     -0.461444
       1.84595     -0.143292    -0.0211975
     -0.712275       -3.0831       2.82936
      0.384042    -0.0711401     -0.583407
     0.0312517      0.145841     -0.165264
      0.745593     -0.507922      -1.05526
      -2.00408       1.20663       1.05585
      -0.72623      -1.12273       1.97294
     -0.494562    -0.0226178     -0.434684
      -1.29116       1.27459      -1.05486
      0.442942     0.0772572    -0.0169448
      -1.71876     -0.559605      0.120613
      0.256468     -0.100536      -3.77724
      0.807555     -0.255762       0.97246
    0.00372346     -0.229919     0.0230834
      0.160624       0.61955      -0.46467
      0.132712      -2.09156      0.966368
      0.062514     -0.880877     -0.403003
    -0.0381702      0.348522       1.20223
     -0.428521       2.69504     -0.446669
     -0.165881     -0.498475      0.585791
      0.362003     -0.205251     -0.498175
      0.712371      0.540383     -0.667063
         0.658      0.684512      -1.00718
     -0.100227       1.25299     -0.324678
       1.05491       1.16011     -0.903799
    -0.0643924      0.124642      0.606863
      0.292864       0.43714     -0.291614
      0.902889      -1.28882       1.32504
      0.441067        1.1963      0.165415
     -0.732711     -0.744072     -0.323032
     0.0682701     -0.262126     0.0748728
     -0.243124     0.0112717     -0.014299
      0.514918     -0.483558      -1.47267
     -0.476784      0.998209       -0.8937
     -0.844624      -0.18625      -1.11591
       1.10883     -0.453067       1.40242
     -0.774799      0.583058      0.423473
     -0.106438     -0.157433     -0.591168
      -2.68441     -0.282012     -0.824052
     -0.536295     -0.824762     -0.887229
      0.406134    -0.0240843       0.15785
       -1.2242     -0.701475       1.32263
      -1.18615      0.148022       1.07236
      0.287607   -0.00842906       1.54159
      0.301133      0.507171      -1.52523
     -0.769037      0.158887     -0.091506
     -0.859539      -0.75901      0.192539
    -0.0379042     -0.331934      -0.10415
     0.0290784     -0.295573      0.514477
     -0.635281     -0.470396      0.204385
      0.903578       3.37524     -0.210885
      0.578718    -0.0307096       1.05686
      0.107671      0.659584     -0.186758
    -0.0996861      0.434747      0.124058
       1.02837     -0.322792    -0.0401691
      0.798594     -0.302469      -2.09641
       1.19815      0.358807      -1.23497
     -0.207841      0.844234      0.564495
       1.88778      0.689089      0.528359
      -1.26858      0.127818       2.24718
      -1.67923     -0.908979       0.28593
      -2.30527       1.98296     0.0080862
     -0.206834     -0.530017     -0.196403
      0.422625     0.0939726      0.201495
     -0.260919      -0.37149      0.736997
      0.844957       1.39552      0.450118
      -1.58491     -0.362695     -0.583275
     -0.688121       1.08994      -1.46767
      0.485082     -0.891509     0.0792172
     -0.817613        0.3137     -0.578715
       0.63819     -0.514607      -1.02696
     -0.121646     -0.599945      -1.92883
       0.34873     -0.344446     -0.600884
     -0.201638      -0.70665      -0.57408
       1.06043      0.350615      0.210447
     -0.831442      -1.80384     0.0726844
     0.0566952      0.845467      0.199075
      -0.23672     -0.900223     -0.376649
     -0.970076     -0.916827       1.89956
      0.493702     -0.335718    -0.0483254
     -0.455713      -0.46197      0.255213
      0.861508       1.06432     -0.905513
     -0.265008      0.345232     -0.583928
    -0.0146682      -0.66211       1.80091
       2.75986     -0.185357      0.346939
      0.738286      -3.18391      -1.41047
       1.05067      0.602739       2.12721
      0.190538      0.457814     -0.112693
       1.72287      0.631974     0.0661161
        -1.193       2.21565      -1.67558
    0.00422691    -0.0847601     -0.332561
       2.64511       1.72501      0.487655
      -1.65782       2.13772       0.29192
      0.484086      0.577413     -0.996058
      0.189047     0.0462491     -0.712348
     -0.318884     0.0736384      0.220393
      0.951766    -0.0409493     -0.189874
     -0.033299      0.508654       1.48099
     -0.033354     -0.500564     -0.922127
      0.271795     -0.176527      0.689128
     -0.651362    -0.0734298     0.0208139
     -0.442452    -0.0420104     -0.405246
    -0.0361446    -0.0684344      0.385282
     -0.553879     -0.238697      0.921174
     -0.399144     -0.167663      0.829225
      -1.21245      -4.98595      0.671504
     -0.864547     -0.631972     -0.901587
     -0.305326       0.76906      -1.38879
     -0.291142    -0.0169701      0.309616
    -0.0624018    -0.0388481      0.574567
     -0.856115     -0.703484     -0.855882
     -0.470459     -0.124969     -0.322841
     -0.296167    -0.0304192      0.112376
      0.660573       1.01422     -0.189463
     0.0818421      0.973511     -0.454102
       1.74012       0.27718       2.81067
    -0.0304687      -1.04003        1.6667
      -0.69992      -0.43457       0.16716
      0.808055      -3.35146     -0.672273
      -0.90475     0.0179714      -1.18091
     -0.124317      0.694509      0.995136
     0.0200097         2.158       1.60785
       1.28318       1.75417       1.53411
     -0.458583     -0.381406      0.241864
      0.314728     -0.610267     -0.342391
      -0.10761       1.11929      0.618826
     0.0164694     -0.730799      -1.16438
       0.87466      -1.16814      0.526545
      0.787928      0.235746    -0.0511764
   -0.00421652      -1.89179      0.102421
      0.890394      0.266926      -0.58764
       1.05536      0.690643     -0.288551
     -0.150734      0.042528      0.440664
     -0.375745      0.779132     -0.193758
     -0.545708     -0.436315     0.0279196
     -0.185156      0.958295       1.18309
       1.83458     -0.579812      -1.42375
      0.210285     -0.659583       -0.2375
     -0.850297      -2.09168      0.395005
      0.661475       1.71601      -1.67641
      0.368499     -0.219591     -0.240831
     0.0854139     -0.158048     -0.203441
      0.347015      0.296488      0.965543
      0.649442     -0.463605     -0.492891
      0.276109      0.696659      0.768638
      -0.49858    -0.0905835     -0.462494
     -0.293743      0.887884      0.171727
      0.647441       0.84085       0.27064
      0.703707    -0.0264264     -0.394961
       0.92803    0.00622711      0.110615
      0.853333      0.837582     -0.402594
      0.740888       1.28976      0.176735
      0.926089      0.388721       1.63105
    -0.0715504       0.72928     -0.411732
      0.220324     -0.783613      0.316628
       1.42832      0.176612      -1.23604
      0.281158       1.24656       2.40576
     -0.702011      0.115707      -1.17835
    -0.0589759     -0.484305      -1.52113
     -0.131426     -0.650947      0.306262
      0.297051    -0.0564611     -0.892517
      0.400005      0.818936      0.153843
       1.42884      0.896851        1.6238
     0.0989491      -1.04638    -0.0520884
        1.5288     -0.203822         2.214
     -0.293313       1.21097     -0.632203
      0.243149      -1.38632     -0.111724
       1.83332       1.62895       1.32268
       1.22228      -2.21059       1.03146
      0.389496     -0.560214      0.523291
        2.3286      0.896067    0.00412636
      0.367335     -0.450479      0.738669
      0.159524       0.56307       1.38552
      -1.02977      0.995669     -0.809362
     -0.431535       1.81314      -1.07697
      0.579743      -1.15297     -0.590928
      -4.46734       2.63626      0.785813
       0.96635     -0.523048      0.708119
      -1.42053       1.27253      0.621183
       1.58335     -0.982937      -2.36865
       -0.7814      -1.20074     -0.719437
     -0.799077     -0.489123      -1.32681
      -1.06489      0.538919      0.368763
      0.374763      0.956476       -1.9319
     -0.483097          1.72      -0.78449
      0.868678      0.272408      0.100889
       0.77288     -0.599991    -0.0842204
      -1.11601      0.786535    -0.0613409
     -0.445128       1.91129     -0.602689
      0.377033    -0.0234737      0.335787
      0.802776      0.674529     -0.345609
      0.933783    -0.0306591      0.432799
     -0.115718      -2.52288       1.91612
     -0.741414      0.179794      -0.53417
      0.150366     -0.211194    -0.0563152
       -1.1392     -0.580974     -0.218751
      -3.20746       1.30942       3.86515
       1.15335     -0.713031     -0.179681
       -1.2195      0.247956       1.00274
      -1.34559       1.61005     -0.871125
     -0.654104      -1.74118     -0.867742
     -0.383102      0.315179      0.391629
       0.13061      -1.26544       1.78972
     -0.348375      0.326819     -0.439529
      0.390836      -1.47581      0.558707
     -0.728212     0.0670524     -0.221364
      -1.50253    -0.0114657     -0.575933
       0.10035     -0.618873      -1.09433
     -0.687978     -0.712888      0.519447
     -0.949339      -1.21714       1.04091
       1.69952     -0.943453       0.93267
     -0.360163       1.95213      0.505645
     -0.583347      0.423395     0.0984334
      -1.06433      -1.85752       2.48213
       1.50205     -0.461177     -0.100447
      0.439671       0.53309      0.821759
      0.555778       1.67877      0.553673
       1.28526      0.296326      -1.11071
      0.698095     -0.905353      0.657608
      -1.11711      0.586876       1.05781
       1.74417      0.634018     -0.891713
      0.251514       0.57149      -0.52989
    -0.0965995     -0.249696      -2.15728
      0.479828     -0.388215    -0.0152307
      -1.38305      0.585132       1.57526
      0.732318     -0.183402       1.53432
     -0.541886      0.346789     -0.157561
      0.826705     -0.651622     -0.218807
     -0.394854       0.54165      0.531986
      0.242636      0.338481      0.555227
     0.0553232      0.996691     -0.336231
      -0.25986       1.12148       0.83686
      -1.86725      -1.89671      0.879611
    -0.0462641      0.963059     -0.331534
     -0.508728      0.902017     -0.219143
       -1.1278      0.539936     -0.545451
     -0.727696      0.817938      0.523991
      0.222669      -1.54425     -0.584622
     -0.592323      -1.07491     -0.661123
     0.0271614      0.121888     -0.398139
       1.08148      0.955709      0.900364
      0.471441      0.159243     0.0238604
      0.516988      0.265824      -1.45653
     -0.226142     -0.942767      -2.19344
     -0.387966      0.436744      -2.03654
      0.519757      0.546003       1.06317
      -1.15859     -0.303438      -1.71306
      0.441014      0.282768      0.933133
     -0.359156      0.275837      0.587834
      -1.92613    -0.0759098      0.948179
       0.24697    -0.0196707      0.394433
      0.379297      0.228578      -1.18139
      0.899615      -1.79619      -1.15331
     -0.185595        0.5426      0.426427
       2.00955      0.443263     -0.362883
      -1.10303     -0.246354       0.81466
     -0.940738       2.25942    -0.0689441
      0.169498    -0.0181493     0.0431127
     -0.283264       1.19145      -2.75968
      0.793019      -1.28614     0.0377298
     -0.147156       1.57332       1.14843
      0.724543     -0.198985     -0.195301
     -0.477058     -0.837655     -0.100562
       1.26996       1.27615      -0.67877
      0.912399     -0.150135      -1.36204
       1.49905      0.143151     -0.562675
      -2.26426      0.216845       1.23432
     -0.443637      0.897372     -0.293489
       1.28641      0.580836     -0.631317
      0.152122       1.64608        1.6812
      0.702399      0.415293     -0.806789
      0.989857     -0.346069      -1.69688
      -1.33891       1.16784     -0.796414
      -1.07464      -1.91956     -0.584833
      0.485304      -1.14062      0.650242
      0.622713      0.550798     -0.520964
    -0.0864278      0.412219     -0.377449
     -0.463331      0.773521      0.261736
       1.99254     -0.847142      0.543668
    -0.0328748     -0.855832      0.771686
     -0.612355       2.42837      -1.41969
    -0.0703047      0.263778     -0.423668
       1.35492      -1.92333      0.432968
       1.34099     -0.359434      -2.02743
    -0.0889084     -0.260593      0.499986
      0.753712      -0.52448    -0.0713173
     -0.542826      0.721407    -0.0913362
      -1.21603      0.245405        2.0902
     -0.147227     -0.333942     0.0561158
      0.538461     -0.224119     -0.714071
       0.54217       1.58259     0.0760654
       1.60301       2.28736        1.2192
      -1.33547      0.377105     -0.382936
     -0.175992     0.0634406      0.731764
      0.967776       1.24957     0.0857986
     -0.131909       1.42245    0.00940985
      -1.11585     -0.649031      -1.19627
      0.904102      -1.63317       1.64688
      -1.10184      0.562018     -0.627044
     -0.497351        1.0476     -0.224595
       1.27842       1.07748     0.0704681
     -0.354216       1.20196      -1.01292
    -0.0206598     -0.828867      0.111123
     0.0886129       0.71014     -0.239524
     -0.506838    -0.0617185     -0.145493
      0.994677     0.0612292      0.693441
      -0.28215     -0.698861     -0.870435
       2.58513      -2.14339    -0.0384759
     -0.541258     -0.665123     -0.157266
     0.0372258     -0.652847      0.632444
     -0.591174      0.119141     -0.153532
       1.97226       1.97462     -0.745938
      0.107913      -4.03733       1.64193
      0.494476      0.879699      0.311982
       2.04449      0.105986        -1.137
     -0.585317      -1.65859     -0.863217
     -0.192049     -0.631674     -0.095444
     -0.461379      0.527741     0.0245883
     -0.314294     0.0961772      0.154137
      0.586988     -0.159427    -0.0237163
     -0.264636       1.27677     -0.851921
       1.23007      0.963387        1.8167
     -0.150203      0.118124      0.151743
     -0.184042      -1.13699     -0.732749
      -1.43533     -0.296148      -2.34833
       2.31348     -0.203019       1.18881
      -1.82122      -2.44131     0.0435219
     -0.831138     0.0733615    -0.0120181
      0.612636     -0.344844     -0.335491
       0.55027      -0.74921     -0.177588
      0.392264      -1.64831      0.596343
      -1.68865      -1.38952     -0.216735
     -0.355181      0.161975     -0.654618
     -0.443609     -0.633389      0.219069
     -0.830663    -0.0880227     -0.487177
   -0.00832851     0.0968148     -0.183763
      -2.10272      0.157883       1.18167
      0.235816      0.415205     -0.944521
     -0.395986     0.0146419      0.949858
      0.584463      -0.51152      0.418589
      0.334229    0.00678995      0.115595
     0.0583413      0.567957     -0.689046
      -1.45125       1.25179      -1.03935
      0.670238     -0.588748      0.161514
      0.777804      -1.15542      0.188399
     -0.366726       1.19652       -0.7917
      0.245841      0.331663       1.27021
      0.332636      0.158947    0.00701311
      0.371106      -0.20451       2.33971
     -0.570828      -1.55035     -0.543006
      0.656803       1.88716     -0.246514
      0.670042     -0.100758      0.810692
     -0.734769     0.0594124      -1.33133
      0.680223     -0.385204      0.909272
     -0.659546      0.186461     -0.395384
      -3.87388      0.656299      -2.92599
     -0.487496      -2.25074      0.734232
     -0.403154      0.806183       1.20666
      0.499521     -0.795985      0.428149
     0.0837118      0.219268     -0.223654
      0.733076       1.16789      0.212413
       1.53341      0.534944     0.0259315
     -0.192772      0.108246     -0.411289
    -0.0943923     0.0574378      -1.21317
       1.00237      -1.50032      0.112276
       0.24687     -0.675657     -0.900567
      -1.28065     -0.464345       1.28022
     -0.482676        1.3705        0.5508
      0.200328     -0.441647      -0.38534
      -1.57969       1.20304      -2.58888
      0.991187      0.222609     -0.257665
     -0.117328     -0.592248      0.618746
     -0.298352       1.05585      0.493504
      0.918974       0.48406     -0.716112
      0.552062      0.690246      -1.21921
       3.80529      -1.91214     -0.701505
       1.77483      -1.96807       -1.8972
     -0.422733      0.436074       1.68717
     -0.410522     -0.685039      0.401583
    -0.0738842     0.0262649      0.213323
      0.349324       1.02382     -0.012105
      0.660092      0.101652       0.46081
      0.999314      0.352913      -1.97013
      -2.90224     -0.736772       1.16592
      0.368743      0.578001      -0.71709
    -0.0615941      0.397978       1.08048
     -0.732542      0.665654      0.858685
     -0.113302     -0.325506      0.747175
      -1.57495       1.13873    -0.0181966
      0.570015      -0.71625     -0.591372
     -0.329348      -1.13939       1.15195
      -1.20407       1.08717     0.0726208
      -1.27826       1.48612        3.3229
     -0.721812      0.933086     -0.400032
     -0.563638     -0.302098      0.386522
      0.578049      -1.22885      -1.92511
     -0.558103       1.06081      0.400599
     -0.275105     -0.188442      -2.25536
      -0.35046     -0.508709     -0.744488
      0.225578     0.0685542       1.22684
      0.461051     -0.360035      0.956154
      -1.35418     -0.219857     -0.706494
     -0.104173       1.62807      -1.00766
      0.432582     -0.655505      0.370532
       1.69404      -1.12336      -1.00983
       -1.5681      0.395675    -0.0492982
     -0.905669       2.29169       0.29947
      0.117663     -0.863076     -0.098804
     -0.830913      0.333961      0.551806
      0.690299     -0.345373      0.605527
       -1.2078       1.10825     -0.987798
       1.18731      0.372775       1.94098
       1.28893      0.485455      0.485751
     -0.685307      -1.20049       1.64304
      0.863736       0.98534      -1.20907
    -0.0412754     -0.991373     -0.633013
      0.164753      0.364587      0.659384
       0.73576     -0.763193      -0.35648
      -1.43803      0.369451      -0.52116
      0.923416       1.62615      -1.42835
     -0.090005      -0.50396      -1.20214
       1.65848     -0.258653      0.824668
     -0.921489       1.67713      0.946063
     -0.306661     -0.631875       1.53229
     -0.286681      0.593022     -0.598663
        3.0694     -0.367514       0.64035
    -0.0200203     -0.915707      -1.18984
     -0.564816      -1.23115      0.242061
      0.283347      0.547512       0.64559
      0.662179     -0.292213      -1.86315
     -0.424272      0.305017       -1.2461
     -0.347373      0.353045      0.530395
      0.818945      0.521948    -0.0562739
      0.342193       2.76915       1.00524
      -1.00001     -0.409688     -0.117639
     -0.051753     0.0637935      0.155704
       0.11506      0.183413      0.178775
     -0.449394      -1.17578    -0.0618116
    -0.0636971       1.06358     -0.807227
      0.604018      0.843337    -0.0981814
     -0.135985      -2.19132     -0.697162
      0.372444     -0.790385     -0.190642
     -0.367784      -1.48784      -1.04431
      0.258343      0.239856      0.591798
      0.403026       0.46396      0.413494
       1.94846      -1.13404      0.444636
     -0.840192    -0.0813915      -1.07337
      0.588456      0.667272      0.191857
      0.726923      -1.50579      0.108221
       -1.1866     0.0714879     -0.812676
      0.060038       -1.4326     -0.664655
       1.25912        1.0547      0.312639
      0.659058     -0.211252      0.284418
       -0.2531     -0.643206      -1.01263
     -0.138371      -1.13267       -0.9959
      0.707454       1.95817       1.83428
     0.0748821      0.681572      -0.13914
       0.75665      0.891941      0.382648
      0.252787     -0.229319      0.231126
     -0.273841     -0.252166      0.130786
      0.137701    -0.0495805     -0.396784
      -1.91028      -1.13575      0.702658
      0.445448      0.894158       1.42007
      0.481538     -0.362503     -0.499272
       2.36857      0.684728       1.88429
       1.91556     -0.516049     -0.700654
     0.0850225      0.130328       0.18483
      0.371283     -0.154305      0.335437
      0.426171      -2.52715      -1.01526
      0.297333        3.5639       2.92679
     -0.821893     -0.870345      -1.77489
     -0.566831      -1.60155      0.599134
      -1.20931    -0.0480977      0.265776
     -0.433049      0.847715     -0.685127
     -0.571406      -1.46483     -0.793208
      0.396481      0.836866      -1.20275
      0.178876     -0.838875      0.416178
      0.224485     0.0639649       1.29218
      0.229998    -0.0195458      0.423382
       -1.5083      0.668645      0.404633
      -1.32476      -1.31559      -1.18098
       1.77566      0.654018     0.0151375
      0.213533     -0.539731       1.43799
     -0.481367     0.0946267      0.917195
   -0.00515229     0.0890357      -1.35255
     -0.346512      -0.75328     0.0806947
     -0.951161       1.39724     -0.509632
      0.191186      0.703804     -0.482958
      0.998986     -0.489759     -0.843057
      0.568289      -1.18354     -0.278409
      0.275077       2.27752     -0.858756
     -0.474958      -1.02462     -0.869598
      -1.63261     0.0621089       1.47304
       0.64705        1.1921      0.741978
      0.511157      -0.44865      0.075191
      -0.47586      0.833434      -1.03031
     -0.597608      0.759065       1.02388
      0.581203       0.91362      0.224454
     -0.749513     -0.674272      -0.85749
      0.882311      0.947587     -0.549456
      -0.42527   -0.00170362     -0.321504
     -0.811992        1.7004       2.92447
     -0.262796        1.1814     -0.898902
     0.0833346       1.81689      -2.15981
      0.505489      0.924323      0.739303
     -0.332247      0.671621       1.68573
     -0.175794      0.981255       1.94391
       1.18596       2.10018       1.17849
      -1.75612      -1.25064      0.432446
     0.0855393      0.209957      0.329139
      0.227553      0.978613      0.969129
        0.3549    0.00959309     0.0667515
      -0.19862      -1.34915       1.48693
     -0.319802     0.0927395      -1.00384
     -0.702673      0.322712     -0.792947
       2.62305     0.0436895     -0.687449
      -2.17237     -0.439004       1.36537
      0.580276     -0.359359    -0.0299779
      0.460299     0.0261618     0.0726887
      -1.08777      -1.00768     -0.436617
      -3.09425       1.82877      -2.62747
      0.455645     -0.823576     -0.756699
       2.49921      0.990033    -0.0409079
       1.71818      -1.48158      0.932781
       0.26573      -1.13814       1.16999
      -0.40281      0.626697      -2.76194
     -0.243991       1.16518     -0.635981
       1.59454     0.0855435     -0.033606
     -0.329709     0.0545787      0.662596
      0.515712      0.224908      0.120974
     -0.534294       0.34569     0.0462165
      0.287911   -0.00594454     -0.308491
     -0.474065     -0.603187      0.721564
        1.1164     -0.248551       1.28062
       0.94417       0.94298       1.02219
     -0.774319     -0.789655     -0.330805
     0.0867008     0.0644644      0.717677
     -0.565757      -2.30858     -0.385734
      0.307034     0.0835827     -0.893003
       1.32101     -0.498903     -0.940367
      -1.69092     -0.597501      -1.15214
     0.0651837      0.724056      0.948144
       2.17514     0.0395463      -2.09303
     -0.660166     -0.746856      0.298891
      -0.81927      0.427841      0.286276
      0.703316      0.114322     -0.359201
     -0.400731     -0.269101     -0.529294
       -1.0349     -0.301471      -0.29903
       2.50804      -1.25726      -2.10807
       0.17839     -0.271502      0.972673
       -0.2094       0.44341    -0.0114865
       0.65428      0.955667     -0.111357
      0.997569      0.281918     -0.166759
      0.116613     -0.804695      0.217229
     -0.861835      0.125873     -0.462188
     -0.844587      -1.22442     -0.168352
      -1.04976        1.1219      -3.10378
    -0.0603332      0.142856     -0.197143
     0.0553283     -0.142283      0.325787
      0.653503     -0.799321     -0.744488
     -0.655398      0.630617       0.65725
      0.575557     -0.193658       1.68722
       0.73463      -1.25095      -1.29545
    -0.0746751      0.146583     0.0477028
     -0.424343     -0.678549     -0.463954
     -0.416775     -0.270546       1.46119
       1.06489       0.25639      -1.59836
      0.396435      -0.43371     -0.138898
     -0.460977       1.10105     -0.125954
       1.50243     -0.610781      0.387524
     -0.427838      0.543693     -0.225905
       1.09177      -1.68283      -2.43517
     0.0307078      0.573654     -0.639716
        2.2044      0.310861     -0.667897
      -1.87979       1.01164     -0.309484
      -1.33821     0.0287203      0.276196
       1.39998      -1.45098      -0.23575
        1.4225      -1.24168       0.17358
     -0.122192      0.721688     0.0730318
      0.918249     -0.335204      -1.25079
     -0.370701       2.19134      -0.12553
     -0.128411      -1.32766      0.862392
      -3.42542         2.311      0.688515
     -0.209636     -0.381832      0.149631
       1.18526      0.562392     -0.788719
       1.21538      -0.28184       -1.6694
    -0.0556365      0.718624       1.28174
      -0.25506     -0.992884      -1.03942
      0.537121     -0.886203     -0.650018
        -0.836     -0.664495     -0.628645
     -0.310668     -0.384382     -0.104839
      0.226325      0.447441       1.14484
       1.25954      -1.44403       1.29723
      0.580435      0.833419     -0.921488
      -1.26822     -0.249464     -0.771532
      0.262922     -0.263545     -0.131329
       0.18783     -0.222817     -0.180914
     -0.313293      -1.11599      -1.32846
       1.25179     -0.165885      0.100626
      0.291251     -0.803886        1.1788
      0.622815     -0.284809      0.496452
      0.691932       1.09267        2.1861
      0.988618     -0.120228     0.0515206
      0.798489      0.461167     -0.108032
     -0.213032     -0.679691      -1.70005
       1.22949      -1.05966     -0.104298
      0.849261      0.865301      0.646773
     -0.509852     -0.767197       1.09128
      -1.02036     -0.472069     -0.155549
      -2.28514     -0.827913      0.182519
      0.430193     -0.681622     -0.202324
       1.70541       1.75181        1.0778
      -1.01723     -0.643516       -0.6339
        1.1281      -1.28388     -0.510099
      0.328171    -0.0816894      0.131172
     -0.652609      0.820294     -0.115974
      0.133731      -2.08385     -0.480644
      0.118247      -2.12949      -0.62834
      -1.47805        2.0132       1.42693
       1.24283       1.26294       2.96495
      -2.22715        1.4251     -0.959925
      -1.31943      0.129228     -0.340359
      0.772916      0.185842      0.763035
     -0.137794      -1.25851     -0.132016
     -0.785847     -0.122391      -1.17838
      0.240057      0.354048      -1.17342
     -0.192219       3.73728      0.489928
     -0.484778        -0.352     0.0279658
     -0.894563      -2.59214       1.05342
      -1.08379     0.0998258     -0.129713
     -0.157207      0.573387     0.0669558
      0.288761      0.468648    -0.0851927
      -1.43082       1.14626     -0.741706
      0.795085      -1.41454      0.254722
      0.174981      0.455714     -0.156156
      -1.73064      0.149737       -1.0854
     -0.636854       1.53514       1.53062
      -3.87879     -0.462625      0.960429
      0.326605     -0.131863      0.429279
     -0.144005       1.64558      0.401621
     -0.710452      -1.15393     -0.974751
      -1.64639      0.713803      0.929854
     -0.417893      0.607558      -0.32326
     -0.329434     -0.368558    -0.0557501
    -0.0885101      0.790461      0.498758
     -0.209049    -0.0954602       0.45205
     -0.299541       1.16682      0.648634
      -1.29533     -0.853224     -0.743607
       1.29765     0.0472684     -0.181975
      0.916632      -0.74355       1.45784
      0.437827       1.72016      0.968849
     -0.421605      -0.30726      -1.73303
     -0.428496     -0.274095       1.24543
      -2.11799     -0.745819      -0.80079
      0.737328      -1.02776      -1.38835
       1.38959    0.00451384       0.50027
      0.023063      0.447525       1.08881
     -0.394529        2.6197       1.59068
      -2.31269     -0.751044      -1.12627
        1.5418      0.204688       1.26693
      0.303561      -1.95986    -0.0355664
       2.46915      -1.00799      -1.29724
     -0.195975      0.515616     -0.293352
     -0.992225     -0.672579     -0.238923
       -1.6378      -1.12696      0.916099
      0.669392      0.205733      0.980543
     -0.216558      0.952381       0.97801
      0.196632      0.878448    -0.0415137
      -1.07812      0.115221      0.184926
      -1.29476      -1.11123     -0.409291
      -1.63162      -1.39812      0.559462
       -1.2974     -0.917316      0.849474
      -2.02145      -1.04173      -1.05526
       1.86336      0.830307      0.096124
      0.682108     -0.778244       1.05272
      0.441781      -1.37468      0.649429
      0.416797      -1.48255      0.778806
      0.849273      -1.61458      0.994055
     -0.271375     -0.705603      0.346779
      0.376885     -0.159008       2.44724
      0.308209      0.821648       -1.0197
      -1.69789      0.309323      0.672961
       0.99228     -0.742683      0.693103
     -0.624109      0.267566      0.718493
      -0.60364      0.251157     -0.538596
      0.576376       0.15726       1.65538
     -0.161206      -0.48548      0.354082
     -0.849993      0.332951     -0.252217
       1.79394    -0.0255998      0.524189
       0.91133       1.46832      -1.01229
      -1.50336      0.803114      -1.48506
      0.190087      -1.38433     -0.873903
      0.450447      -1.19424      0.922546
      0.393885     -0.942998     -0.653152
       1.50351       1.06963     -0.743504
      0.168012    -0.0757498     -0.709077
       1.34977      0.653305       2.42487
     -0.252874      0.604607      0.493065
      0.428844       1.51471     -0.428343
     -0.723641      -0.19674       -1.8928
     -0.263279      0.737306      0.169006
     -0.607795     -0.870483       1.27191
     -0.163964     -0.802436       2.00865
     -0.254408      0.479448     -0.398588
       3.02552     -0.610241    -0.0121455
    -0.0250726   -0.00645319     -0.690853
     -0.150094      0.663262     -0.216359
     -0.221532     -0.118037     -0.504497
      0.625806      0.938926      0.239634
      -1.21107       1.02637      0.114906
      -1.29468     -0.827916      0.242451
      0.567292      -1.79757     -0.260458
      -2.11279     -0.387109      0.505338
     -0.740061      -1.01212      -1.90012
     -0.263953      0.253025      0.294602
     -0.116406        1.6216      0.485627
      0.738112      -1.24655       2.29197
     -0.295569     -0.499035      0.682714
     0.0109664      0.283439     -0.946983
       0.85662      -1.43749     -0.305269
      0.814236      0.260001     -0.280093
      -2.61245       -2.0969     -0.148266
       2.27022       2.44125     -0.313229
      0.388122     -0.647527    -0.0753865
       1.75319     -0.507444      0.617477
      -1.21089     -0.289268      0.711164
     -0.914791      0.385142     -0.244336
      0.402231       0.32124     0.0995954
     -0.233606       1.01962     -0.165046
     -0.721519     0.0440371      0.275398
      0.714741      0.935451      -0.36866
      0.275906     -0.269626     -0.125432
     -0.609775      0.547794      0.719123
      0.123407       1.29283      0.721437
     -0.310102     -0.713563      0.246693
      0.413838     -0.763767      0.297034
      0.613241     0.0727407       3.69441
     -0.974168     -0.680548       3.26489
       1.89363      0.227534      -1.42967
      0.159115      0.756579       1.25786
     -0.458042      0.201449      0.424182
      0.138727     -0.956405      0.684996
      -1.00397      -1.59946    -0.0574019
     -0.552306      0.718022      0.786202
     -0.546587     0.0398954     0.0249877
     -0.322371       1.01035     -0.594873
       -1.9207      -1.36518      0.783128
    -0.0383722      -1.34729       1.06587
     -0.573394     -0.586363      0.575921
      0.400306      0.251782     0.0189719
      0.425789      0.554975     0.0623217
      0.031867     -0.465299     -0.789198
       1.49593      -3.51088      0.865345
      0.824887       -0.2951     0.0615228
    -0.0922893      0.599169      0.900172
      0.311296      0.881074      0.488038
      0.848771      -1.65967      -2.75802
       0.16138       2.41191     -0.189047
     -0.704759       -1.2219     -0.469201
       3.06434     -0.519611      0.646887
      0.174769      0.126158     -0.524152
     -0.313209      -1.22392       2.85217
     -0.151492     -0.117828      0.514726
     -0.692168        0.9175      -1.01534
      -1.04125       1.14386       1.55515
     -0.379362     -0.136442  -0.000735313
      -1.36516       3.02165     -0.344481
     -0.302253    -0.0440398       2.00023
       0.20884     -0.219925        0.1937
     -0.663214      0.897082     -0.187543
      0.898493      0.740513      -1.62523
     -0.987688        1.5225      -2.18387
     -0.161396     -0.961233      0.353507
     -0.561625      0.547592     -0.102725
       1.10446       1.31946      0.191183
       3.29102     -0.712151       3.14596
     -0.184039     -0.142496      0.452943
      -1.29479     -0.526595       1.50136
      0.629319     -0.575983     -0.384005
     -0.833622      0.605107      0.993209
     -0.291919      -0.36268      -0.66748
     -0.853567      -1.03155      0.111482
      -1.44555       3.13236       1.61888
     -0.601934      0.489847     -0.195935
     -0.503805      -3.05861     -0.256872
    -0.0156191      0.768198       0.19157
      -1.90782      -2.13709        1.2643
     -0.715095     -0.230242       2.15818
      0.541019     -0.408414     -0.227484
     -0.751957      -1.12963       1.68431
      0.710388    -0.0668959      0.175471
       1.85428       3.15563      0.883645
     -0.848278     -0.427187       -1.9158
      -2.49513      0.474618       2.22303
       -1.3364     -0.467635        1.3373
       1.36822       -1.4882      -2.69046
    -0.0603199      0.106517      0.212268
     -0.836817      0.578905     0.0542483
      0.451856      0.645603      0.255327
      0.171193      0.213183     -0.224326
      0.509978     -0.196102     -0.908724
       1.12619     -0.243755      0.385786
       1.38917     -0.903489     -0.168859
     -0.851736      -1.39072      -1.01957
     -0.559114      0.412481      0.544695
       0.90268      0.173931      0.576568
       1.38709     -0.710366     -0.203149
     -0.508087     0.0213238       1.63287
      0.590384    -0.0134855     -0.955595
      0.102221     -0.484013      0.200451
       0.96069      0.052807     -0.591333
    0.00342666     -0.414095      -1.62442
       1.38534      0.696179      0.765776
       3.27432     -0.659351      0.593738
      0.516745     -0.566436     -0.132667
      -1.69646     -0.336076     -0.295393
     -0.137946      0.651338        1.1938
      0.297045    -0.0783432      0.136229
      0.436874      0.770413      0.175608
    0.00801908     -0.890729      0.199541
      -1.57333    -0.0368345     -0.597573
       -0.7873     -0.381169     -0.974699
     -0.766595       1.56711       1.07547
      0.576029     -0.897562    -0.0270488
      0.455824      0.440275      -3.39698
      0.440366       1.68787      -1.36264
     0.0590592     -0.278699      -0.22996
      -1.19874      -1.37436     -0.796561
     -0.156925      0.246187     -0.614683
      0.359872      0.219068      -1.88903
      -1.03173     -0.337573      -1.05177
      0.570113      0.782966      0.715501
      0.216247    -0.0634142      0.473658
      0.853717     -0.945451      0.238131
     0.0294528     -0.179047       -1.3035
       1.05925      0.026098      -1.09205
     -0.710352       1.19048     -0.443616
    -0.0953132      0.687592     -0.252635
      -1.44879      -2.37019      -1.24182
      -1.94807      0.114193      -1.38222
       0.61921     -0.050699     -0.854776
      0.232747       2.21289       3.14722
        0.4581     -0.571864    -0.0148144
      0.303883     -0.466286    -0.0583477
      0.422631      0.162314     -0.277014
      -1.06558      -1.24068     -0.418987
     -0.402979      0.398784      0.488299
      0.416472     -0.704532      0.312382
     -0.251312      0.160461    -0.0816743
      0.511277      0.481302      0.282551
      0.755499     -0.893887      -1.10729
     -0.107311    -0.0807428     -0.609456
     -0.548409      -0.29045     0.0356764
     -0.379539      0.614421     -0.653516
     -0.946266      -1.71278       1.01522
      -1.26337      0.705856       1.18692
      0.190646      -1.49913       1.95028
    -0.0200522      -1.12616     -0.289369
      0.330065      -1.13246      0.311761
     -0.135037     -0.709431     -0.619078
      -1.06696      -1.47985    -0.0170763
      -1.43161      0.347947      -1.80284
     -0.296583       1.52115      -1.79044
       1.32335      0.135295      0.516916
      0.670135      0.926016      -1.08915
     -0.775659      0.672177     -0.100628
       1.57944      0.972531      -0.39612
      0.015827     -0.780359       1.54463
      0.279886     -0.788378      0.500634
      -1.40145      -4.97465       1.73297
     -0.979172     -0.339707       1.12946
       0.41156    -0.0156786    -0.0387529
      0.378427     -0.281053      0.572347
     -0.606541      0.875844      0.367892
     -0.195496     -0.909437      0.685798
      0.211062      0.736558      0.753072
     0.0566917      0.353705     -0.813661
      0.678747       2.18388     -0.316867
    -0.0908792     -0.125339      -1.76167
      0.763355     -0.683393       1.02657
      0.790026     -0.223801     -0.525311
     -0.347482       2.53387     -0.400211
      -1.45388      0.546966      -0.47234
      0.256797      0.178567    -0.0458157
      0.824672      0.967049     -0.876681
      -1.00456     0.0485378     -0.853137
      0.310854     0.0323326      0.269367
      0.169211      0.229285       2.13129
      -2.99309     -0.325077      -1.83804
      0.837011     -0.672096    -0.0562591
     -0.190815      0.215562    -0.0145371
    -0.0905125     -0.365466      -0.15552
      0.793772      0.463525      0.237221
     -0.156479      0.385126     -0.605678
     -0.750902      -1.30853    -0.0389745
      0.982451      0.101121      0.447193
      -1.66134       2.89781     -0.119666
     0.0740651     0.0701679      0.954547
      0.972475      0.326568     -0.360879
      0.910288      0.106026      0.158867
     0.0257904       0.10447     -0.284416
       1.03844      -0.26412      0.235096
     -0.633165      0.329688       1.23249
      -2.00204     -0.137372      0.240458
      0.731873      -0.70952      -2.78701
      0.878244     -0.900677     -0.199758
      -1.00522      -1.31299       1.33262
     -0.547235       1.43219       0.63756
       0.11644      0.106931       1.39658
       1.23797     -0.235653      0.429332
       2.04533       1.36744     -0.679755
       2.16526     -0.816691     -0.186888
      -1.15233      -1.49288     -0.374368
     -0.238988     -0.601348     -0.367034
      0.218649      -1.06971       2.22302
      -1.81941     -0.706896      0.861013
      0.153937     -0.214912     -0.319698
     -0.407747    -0.0619996      0.421617
      0.258464     -0.123006    -0.0296887
       1.34004      0.687628      0.827402
     -0.203975       1.23261     0.0270145
      -1.75241     -0.156781     -0.658138
      0.475208     -0.712415      0.250233
      0.745788     -0.252661     -0.739683
      0.234637      -1.15046     -0.653319
     -0.687458       2.00629      -1.71183
       2.09937      -2.07666      -4.43276
       0.17447     -0.141991    -0.0508714
      0.584039      0.339957     -0.161939
      0.216183    -0.0545524    -0.0755999
      0.799219     -0.261123      0.636665
     -0.494427      0.596683     -0.430901
      0.531612      0.191526     -0.335849
      0.645235     0.0798572    -0.0670767
      0.801708      0.829943      0.288593
       0.35853     -0.716641      0.963827
      0.141794       1.07743       1.22022
     -0.416537     0.0396277      0.732819
      -1.42271      0.147401    -0.0591692
     -0.291922     0.0629131       1.19971
     -0.581721     -0.186044      -1.60976
     0.0837462    -0.0374635      0.777107
       1.29573     0.0130135       1.24824
      0.451995       0.44794      -0.82853
      0.750752      0.880371      0.331839
     -0.427248      0.743052     -0.651686
     -0.303508     -0.243488      0.331436
      0.969294      0.482193      -1.24576
      0.461079      -1.23064      0.922644
      0.115032      0.834923      0.597719
       2.63116      0.690133     -0.734633
      0.407412     0.0651675     -0.276447
      0.815746    -0.0550972       1.14879
     0.0503518      -0.50142        0.7738
       1.00099     -0.620895      -1.81229
       1.53038      0.153798      0.199268
     -0.719152       1.05605      -2.66664
     -0.173636      0.857336      -1.37086
      0.385945      0.816992     -0.460557
       1.10233      0.242017      0.648862
     -0.902069    -0.0813817       1.00312
     -0.828787      0.650863     -0.794235
      -0.68563     -0.260305      0.359508
      0.467003    -0.0292968       -2.4553
       2.91216      0.133167     -0.132212
       1.44092      0.417806      0.911983
      -0.44732       1.03055       1.03467
       1.13676      0.154929      0.406062
       1.31594       1.41823     -0.610326
      0.389658     -0.603759     -0.585727
      -1.14711       2.06493      -1.28349
      0.625011       0.83136     -0.576711
       1.06354      -0.19623       -1.4307
      0.508336     -0.258148      0.179952
     -0.151844     -0.191878     0.0658413
     -0.837227       1.32428       1.01211
      0.578728      0.491475      0.388995
     -0.287288     -0.148354      0.152268
      -2.64786     -0.567823       1.17406
     -0.844335       0.42771      0.644085
     -0.647168      -1.24008      0.394207
      -1.09408      0.528371      0.261422
      0.442535      -0.66414       1.96115
     0.0954374      0.149073      -0.49022
     -0.196876     -0.709022      0.914255
      0.805766       0.12823     -0.359465
     -0.265992     -0.303602      0.368025
       1.03124      -0.99686       1.58209
     -0.553375     -0.414975     -0.123079
      -1.69197      0.735826     -0.682259
      0.472433     -0.588293       1.54269
     -0.848452      0.223227      -1.67439
      -0.35107     -0.300439       1.17234
     -0.611526     -0.243894      0.341156
     -0.750007     -0.721411      -1.82203
      0.714005     -0.982562      -1.01018
     0.0232863      -0.10304      0.325805
      0.366812     -0.410268      0.138813
     -0.400563      0.560359    -0.0895541
      0.146746       2.20797      -1.22454
      -1.85549       1.19041      -1.44588
      -1.56902      -1.42652        1.4404
      0.281358       2.05682       1.40635
     0.0855977     -0.176522       1.17665
      0.475367      0.362631     -0.157415
       -0.7929      0.756917     0.0333566
     -0.419784      0.667621     -0.423243
     -0.874809     -0.936575     -0.861124
      0.571083      0.173112     -0.458982
      0.746135       3.43336     -0.134877
       1.79167     -0.629036       0.72574
      -1.40601      0.592773     -0.320797
      -1.88213      0.677458     -0.648804
      -2.61769      -3.66049       4.41758
     -0.251766      -2.32032       1.68921
     -0.315382       1.09053     0.0288504
     -0.111562      0.665693      0.859079
      0.494896     -0.133998     -0.142016
       1.63167    -0.0644668       0.19326
      -0.57885       0.55597      0.537133
     -0.117764       2.49809      0.687624
      0.127414     -0.343766      -0.19213
      0.582748      0.178395       1.52632
     -0.514333      -1.18618     -0.280875
